-5.445605279537742149e-02,5.251673897192320473e-01,-4.619254365625882763e-02,5.300000000000000266e-01
-5.183732717876472773e-02,4.999127260800026451e-01,9.769420563279093694e-02,5.120000000000000107e-01
-5.479514766331140124e-02,5.284375783854806663e-01,-2.784272872124611900e-02,5.320000000000000284e-01
-5.085111882408518968e-02,4.904018555567113413e-01,1.138252334979956981e-01,5.060000000000000053e-01
-5.279950777312493460e-02,5.091918758758456898e-01,-8.935632095889158369e-03,5.120000000000000107e-01
-5.060967558328180460e-02,4.880734070183180284e-01,1.314800749120805246e-01,5.080000000000000071e-01
-2.936955189360526686e-01,2.832362999783467394e+00,-7.629985449622310734e-01,2.947999999999999954e+00
-5.341825200484124486e-02,5.151589681712658297e-01,9.040346534512858773e-03,5.180000000000000160e-01
-3.346526199292562676e-01,3.227348179849503396e+00,-7.490870109650704656e-01,3.330000000000000071e+00
-3.675185501150701750e-01,3.544303116543768173e+00,-6.926366532168576340e-01,3.629999999999999893e+00
-3.734551482122029920e-01,3.601554929086965284e+00,-5.734887488374863507e-01,3.665999999999999925e+00
-5.404506371767646422e-02,5.212038622496529827e-01,-4.584392068526819963e-02,5.260000000000000231e-01
-5.541313805049161156e-02,5.343974006980988234e-01,-2.815674445870378073e-02,5.380000000000000338e-01
-5.383074815931877116e-02,5.191370297015458490e-01,-9.110156160261994110e-03,5.220000000000000195e-01
-5.060967558328180460e-02,4.880734070183180284e-01,1.314800749120805246e-01,5.080000000000000071e-01
-2.740372474415435078e-01,2.830450770467839217e+00,-7.619632687818210792e-01,2.943999999999999950e+00
-4.952505672561847982e-02,5.115298605398249654e-01,8.970536908763725170e-03,5.140000000000000124e-01
-3.154940862455272721e-01,3.258646362232888283e+00,-7.558355425953864337e-01,3.359999999999999876e+00
-3.437633019973518889e-01,3.550630843365664813e+00,-6.933998891983638169e-01,3.633999999999999897e+00
-3.470280694510240460e-01,3.584351673803563898e+00,-5.703600595366817849e-01,3.645999999999999908e+00
-4.972811516970389312e-02,5.136271919605625014e-01,-4.514667474328692975e-02,5.180000000000000160e-01
-4.946471807274847865e-02,5.109066401998917373e-01,-2.690068150887312687e-02,5.140000000000000124e-01
-4.991046572737426607e-02,5.155106376646485522e-01,-9.040346534512858773e-03,5.180000000000000160e-01
-4.672781868738275918e-02,4.826380050186329096e-01,1.299271606414654223e-01,5.020000000000000018e-01
-2.742234140498597816e-01,2.832373631045602469e+00,-7.624809068720261873e-01,2.946000000000000174e+00
-4.875423872210690734e-02,5.035683062901779028e-01,8.830917657265456230e-03,5.060000000000000053e-01
-3.164330567403056960e-01,3.268344714501439263e+00,-7.580850531388251268e-01,3.370000000000000107e+00
-3.456552299114815097e-01,3.570172014765586432e+00,-6.972160691058947313e-01,3.653999999999999915e+00
-4.857611250167986200e-02,5.017284925329046352e-01,4.410080583031503187e-02,5.060000000000000053e-01
-3.493124012301860315e-01,3.607945870230136798e+00,-5.741144866976473082e-01,3.669999999999999929e+00
-4.992011561437456613e-02,5.156103085318387569e-01,-4.532098622878225069e-02,5.200000000000000178e-01
-4.811743003185649237e-02,4.969908951360814675e-01,-2.616797812147191385e-02,5.000000000000000000e-01
-4.836882972035111417e-02,4.995875291653543160e-01,-8.761108031516322628e-03,5.020000000000000018e-01
-2.487764577002404831e-01,2.776539093206434661e+00,-7.469517641658748319e-01,2.886000000000000121e+00
-4.479264845679011009e-02,4.999208553664135080e-01,8.761108031516322628e-03,5.020000000000000018e-01
-2.925156421461374556e-01,3.264702469442506860e+00,-7.567353468127618887e-01,3.363999999999999879e+00
-3.192229594754452116e-01,3.562776938887856293e+00,-6.953079791521292741e-01,3.644000000000000128e+00
-4.445119135300393265e-02,4.961099280540802181e-01,4.357787137382908293e-02,5.000000000000000000e-01
-3.180208768839328237e-01,3.549360760606956600e+00,-5.644155498651529657e-01,3.608000000000000096e+00
-4.622923900712408440e-02,5.159543251762434002e-01,-4.532098622878225069e-02,5.200000000000000178e-01
-4.310056439713105814e-02,4.810358789338936569e-01,1.294095225512603697e-01,5.000000000000000000e-01
-2.418803673966994916e-01,2.699573352577011143e+00,-7.262462405576731728e-01,2.806000000000000050e+00
-2.942547363324997667e-01,3.284112115515291919e+00,-7.612343678996391638e-01,3.383999999999999897e+00
-3.172957077991389596e-01,3.541267308631123267e+00,-6.911101812538452682e-01,3.621999999999999886e+00
-4.445119135300393265e-02,4.961099280540802181e-01,4.357787137382908293e-02,5.000000000000000000e-01
-3.187260229524115918e-01,3.557230740120497892e+00,-5.656670255854748808e-01,3.616000000000000103e+00
-4.473807551442406799e-02,4.993117788110539301e-01,-2.627265003395779994e-02,5.020000000000000018e-01
-2.236587940846384570e-01,2.703082501242109803e+00,-7.267638786478782809e-01,2.808000000000000274e+00
-2.710903813299828657e-01,3.276328431560906917e+00,-7.589848573562005818e-01,3.374000000000000110e+00
-3.169818217142799655e-01,3.830960544137914869e+00,-7.472080258945494879e-01,3.915999999999999925e+00
-3.373456535922622068e-01,4.077072564158820356e+00,-6.479515541966363035e-01,4.142000000000000348e+00
-2.231808906784746582e-01,2.697306683931762983e+00,-7.252109643772631786e-01,2.802000000000000046e+00
-2.694834436813166589e-01,3.256907397586034758e+00,-7.544858362693231957e-01,3.354000000000000092e+00
-3.186007278517379304e-01,3.850526226181519629e+00,-7.510242058020802913e-01,3.935999999999999943e+00
-3.376714340399611380e-01,4.081009862627345441e+00,-6.485772920567971500e-01,4.145999999999999908e+00
-2.056575596813926543e-01,2.716136075139384598e+00,-7.298697071891084853e-01,2.819999999999999840e+00
-2.464452952119212115e-01,3.254823007286895553e+00,-7.535860320519477407e-01,3.350000000000000089e+00
-2.924525746909389379e-01,3.862444879809221909e+00,-7.529322957558458596e-01,3.946000000000000174e+00
-3.090234704941637323e-01,4.081298045033213029e+00,-6.482644231267167267e-01,4.144000000000000128e+00
-2.075536932103700383e-01,2.741178464484641086e+00,-7.365990023617740023e-01,2.846000000000000085e+00
-2.470338212900392294e-01,3.262595718946088130e+00,-7.553856404866986507e-01,3.358000000000000096e+00
-2.909703011243350845e-01,3.842868372562342927e+00,-7.491161158483149451e-01,3.926000000000000156e+00
-3.093217556973433813e-01,4.085237521910658032e+00,-6.488901609868775733e-01,4.147999999999999687e+00
-1.890737779214790582e-01,2.752197195057801693e+00,-7.391871928127992097e-01,2.855999999999999872e+00
-2.249185818051430419e-01,3.273961607820455644e+00,-7.576351510301373438e-01,3.367999999999999883e+00
-2.645388166092338400e-01,3.850681977477610207e+00,-7.502609698205741084e-01,3.931999999999999940e+00
-2.801171726732439304e-01,4.077443765041752322e+00,-6.473258163364753459e-01,4.137999999999999901e+00
-1.938403437514323313e-01,2.821580317622284007e+00,-7.578221640601806586e-01,2.927999999999999936e+00
-2.249185818051430419e-01,3.273961607820455644e+00,-7.576351510301373438e-01,3.367999999999999883e+00
-2.645388166092338400e-01,3.850681977477610207e+00,-7.502609698205741084e-01,3.931999999999999940e+00
-2.790340709906020678e-01,4.061677911914475914e+00,-6.448228648958316267e-01,4.121999999999999886e+00
-1.754458430268721891e-01,2.844074857380098464e+00,-7.635161830524361815e-01,2.950000000000000178e+00
-2.022966948627549222e-01,3.279342124407768733e+00,-7.585349552475127988e-01,3.371999999999999886e+00
-2.376497567754351226e-01,3.852434953411733698e+00,-7.502609698205741084e-01,3.931999999999999940e+00
-2.498202568343112218e-01,4.049725539623519666e+00,-6.426327823852683307e-01,4.107999999999999652e+00
-1.753268966926166961e-01,2.842146671036112071e+00,-7.629985449622310734e-01,2.947999999999999954e+00
-2.016967639764478126e-01,3.269616910515693586e+00,-7.562854447040742167e-01,3.362000000000000099e+00
-2.377706366110279301e-01,3.854394482889563101e+00,-7.506425878113273109e-01,3.934000000000000163e+00
-2.521311550231388199e-01,4.087186486679433628e+00,-6.485772920567971500e-01,4.145999999999999908e+00
-1.552698938546384078e-01,2.839443473128086648e+00,-7.619632687818210792e-01,2.943999999999999950e+00
-1.786529932349477934e-01,3.267053663800870922e+00,-7.553856404866986507e-01,3.358000000000000096e+00
-2.103203266098075119e-01,3.846158864624903639e+00,-7.487344978575618537e-01,3.923999999999999932e+00
-2.267192032934739476e-01,4.146047543686289139e+00,-6.576504910291305350e-01,4.203999999999999737e+00
-1.551644115897915233e-01,2.837514503377320807e+00,-7.614456306916160822e-01,2.942000000000000171e+00
-1.791850152517284467e-01,3.276782828970021821e+00,-7.576351510301373438e-01,3.367999999999999883e+00
-2.099987358963368578e-01,3.840277887767679310e+00,-7.475896438853025794e-01,3.918000000000000149e+00
-1.359389674727403963e-01,2.840434574875782658e+00,-7.619632687818210792e-01,2.943999999999999950e+00
-1.569698404473141573e-01,3.279873095319002285e+00,-7.580850531388251268e-01,3.370000000000000107e+00
-1.722166051442710344e-01,3.598453105196715462e+00,-7.002690130319194628e-01,3.669999999999999929e+00
-1.361236671568066270e-01,2.844293860982950672e+00,-7.629985449622310734e-01,2.947999999999999954e+00
-1.566903689212952033e-01,3.274033558650778275e+00,-7.567353468127618887e-01,3.363999999999999879e+00
-1.610483348379123381e-01,3.365092931072242166e+00,-6.548564721323018034e-01,3.431999999999999940e+00
-1.166017427488372366e-01,2.841294073237625284e+00,-7.619632687818210792e-01,2.943999999999999950e+00
-1.344811772300781028e-01,3.276971362674165444e+00,-7.571852489214496718e-01,3.366000000000000103e+00
-1.358047975528210716e-01,3.309224693452653465e+00,-6.437895504004621516e-01,3.374000000000000110e+00
-1.169185953106547243e-01,2.849014981045336459e+00,-7.640338211426411785e-01,2.951999999999999957e+00
-1.344012715989253426e-01,3.275024261448571394e+00,-7.567353468127618887e-01,3.363999999999999879e+00
-1.363683029368576716e-01,3.322955916247062547e+00,-6.464608763357337917e-01,3.387999999999999901e+00
-9.650014456508877736e-02,2.834315928337776125e+00,-7.598927164210008689e-01,2.935999999999999943e+00
-1.119320622639913138e-01,3.287568411387638001e+00,-7.594347594648882538e-01,3.375999999999999890e+00
-1.140350160056123469e-01,3.349334487628215395e+00,-6.514219102155239804e-01,3.414000000000000146e+00
-9.650014456508877736e-02,2.834315928337776125e+00,-7.598927164210008689e-01,2.935999999999999943e+00
-1.117331308737117279e-01,3.281725576533276456e+00,-7.580850531388251268e-01,3.370000000000000107e+00
-7.697197187363678805e-02,2.844576274632391932e+00,-7.624809068720261873e-01,2.946000000000000174e+00
-8.918881198662613474e-02,3.296061830874058352e+00,-7.612343678996391638e-01,3.383999999999999897e+00
-2.905494320465802638e-02,2.219507381938301549e+00,-5.947661656455927037e-01,2.298000000000000043e+00
-2.945953771403533178e-02,2.250414360276868031e+00,-6.030483750888733230e-01,2.330000000000000071e+00
9.836209733435204161e-02,4.787585382524929822e-01,-1.309624368218754997e-01,5.060000000000000053e-01
1.008152904176473352e-01,4.742986507946784225e-01,-1.299271606414654223e-01,5.020000000000000018e-01
1.021017955364608015e-01,4.803511815126464413e-01,-1.133753313893079567e-01,5.040000000000000036e-01
1.012169449611439453e-01,4.761882868536213564e-01,-1.304447987316704471e-01,5.040000000000000036e-01
1.053685463502678638e-01,4.792436325514874973e-01,-1.314800749120805246e-01,5.080000000000000071e-01
1.053685463502678638e-01,4.792436325514874973e-01,-1.314800749120805246e-01,5.080000000000000071e-01
1.104236984631117857e-01,4.860317240394319560e-01,-1.335506272729007071e-01,5.160000000000000142e-01
1.110018300002752617e-01,4.740028989578481400e-01,-1.304447987316704471e-01,5.040000000000000036e-01
1.101208630955111678e-01,4.702409711883414056e-01,-1.294095225512603697e-01,5.000000000000000000e-01
1.161226794499975873e-01,4.807277868421869216e-01,-1.325153510924906297e-01,5.120000000000000107e-01
1.147618668001929160e-01,4.750942580901300616e-01,-1.309624368218754997e-01,5.060000000000000053e-01
1.204244744179956972e-01,4.697029687885700411e-01,-1.299271606414654223e-01,5.020000000000000018e-01
1.297159164676815746e-01,4.652171068307831558e-01,-1.294095225512603697e-01,5.000000000000000000e-01
1.416611234455842083e-01,4.697968880327419439e-01,-1.314800749120805246e-01,5.080000000000000071e-01
1.901434563911521269e-01,4.626972936969566685e-01,-6.142214907619433090e-02,5.040000000000000036e-01
1.893277912149512465e-01,4.607124445901085164e-01,-4.357787137382908293e-02,5.000000000000000000e-01
1.925395309284239076e-01,4.593794707607083416e-01,-4.357787137382908293e-02,5.000000000000000000e-01
1.930101239860323170e-01,4.605022572799514213e-01,-2.616797812147191385e-02,5.000000000000000000e-01
1.986564397287720607e-01,4.739737845301755237e-01,8.970536908763725170e-03,5.140000000000000124e-01
1.930101239860323170e-01,4.605022572799514213e-01,-2.616797812147191385e-02,5.000000000000000000e-01
1.985749502704253211e-01,4.646533042240781342e-01,-2.648199385892957558e-02,5.060000000000000053e-01
1.950249851452355854e-01,4.563466017772019878e-01,-6.093467170257373805e-02,5.000000000000000000e-01
1.972455010774172568e-01,4.615424739834663170e-01,-8.761108031516322628e-03,5.020000000000000018e-01
2.004628424931356179e-01,4.601542043333217147e-01,8.761108031516322628e-03,5.020000000000000018e-01
1.975938531325219238e-01,4.535685573373245405e-01,-9.616773366977858506e-02,5.040000000000000036e-01
1.997304407696077200e-01,4.584730063210074036e-01,-4.375218285932439694e-02,5.020000000000000018e-01
2.002186093984914539e-01,4.595935773166629490e-01,-2.627265003395779994e-02,5.020000000000000018e-01
2.020601559791367352e-01,4.638207716985274787e-01,-8.830917657265456230e-03,5.060000000000000053e-01
1.982061069370140149e-01,4.549739607465162483e-01,-6.093467170257373805e-02,5.000000000000000000e-01
2.053006124245370101e-01,4.712591060988840508e-01,-4.497236325779161575e-02,5.160000000000000142e-01
2.018139768040571325e-01,4.632556775343256161e-01,-2.648199385892957558e-02,5.060000000000000053e-01
2.044818495436092343e-01,4.605711707925997933e-01,8.796012844390889429e-03,5.040000000000000036e-01
1.976898243828761892e-01,4.452729377840780600e-01,-1.124755271719325017e-01,5.000000000000000000e-01
2.003919677482131068e-01,4.513591959835241418e-01,-7.821723252011543448e-02,5.000000000000000000e-01
2.045996095378518065e-01,4.608364112456859729e-01,-6.190962644981491680e-02,5.080000000000000071e-01
2.021178215900109043e-01,4.552464775506061545e-01,-4.357787137382908293e-02,5.000000000000000000e-01
2.066640618116207251e-01,4.654863457161407814e-01,-2.669133768390135122e-02,5.100000000000000089e-01
2.052932854544965435e-01,4.623988341687608750e-01,-8.830917657265456230e-03,5.060000000000000053e-01
2.078216506329360891e-01,4.680936775645156422e-01,-6.288458119705610250e-02,5.160000000000000142e-01
2.029262928763709561e-01,4.570674634608085651e-01,-4.375218285932439694e-02,5.020000000000000018e-01
2.074745091128427366e-01,4.673117823660079551e-01,-2.679600959638724078e-02,5.120000000000000107e-01
2.118208653917734441e-01,4.684770391527426914e-01,-6.312831988386639892e-02,5.180000000000000160e-01
2.142412025777237217e-01,4.738300169933729045e-01,-4.549529771427756469e-02,5.220000000000000195e-01
2.073591534496495303e-01,4.586092218518706409e-01,-2.637732194644368949e-02,5.040000000000000036e-01
2.133790994985705070e-01,4.719233327900996811e-01,-9.040346534512858773e-03,5.180000000000000160e-01
2.084359543364414369e-01,4.609907459300973120e-01,8.830917657265456230e-03,5.060000000000000053e-01
2.093673418544169940e-01,4.630506641818615821e-01,-6.239710382343550965e-02,5.120000000000000107e-01
2.142412025777237217e-01,4.738300169933729045e-01,-4.549529771427756469e-02,5.220000000000000195e-01
2.106505685837709585e-01,4.658887333098368777e-01,-2.679600959638724078e-02,5.120000000000000107e-01
2.158506720796350420e-01,4.773896262201008378e-01,-9.145060973136560911e-03,5.240000000000000213e-01
2.140776888527591848e-01,4.650106424744580025e-01,8.935632095889158369e-03,5.120000000000000107e-01
2.073438894498176588e-01,4.503837637771190838e-01,-7.853010145019589938e-02,5.020000000000000018e-01
2.108540848041170757e-01,4.580084639766634491e-01,-6.190962644981491680e-02,5.080000000000000071e-01
2.174614731640856224e-01,4.723607578696551457e-01,-4.549529771427756469e-02,5.220000000000000195e-01
2.171577567301107292e-01,4.717010376771886837e-01,-2.721469724633079207e-02,5.200000000000000178e-01
2.124052069085969885e-01,4.613777468301262230e-01,-8.865822470140024766e-03,5.080000000000000071e-01
2.207676166294079145e-01,4.795422250517847873e-01,9.214870598885694514e-03,5.280000000000000249e-01
2.081699607225260817e-01,4.521781214017290829e-01,-7.884297038027636428e-02,5.040000000000000036e-01
2.125143531884014503e-01,4.616148298347473866e-01,-6.239710382343550965e-02,5.120000000000000107e-01
2.157951017222152212e-01,4.687411352039872470e-01,-4.514667474328692975e-02,5.180000000000000160e-01
2.188282010126500199e-01,4.753295071977824415e-01,-2.742404107130256771e-02,5.240000000000000213e-01
2.107327249644348477e-01,4.577448511857946101e-01,-8.796012844390889429e-03,5.040000000000000036e-01
2.181677339554703443e-01,4.653153439639656219e-01,8.970536908763725170e-03,5.140000000000000124e-01
2.207880423584962781e-01,4.709040242135140719e-01,-6.385953594429727431e-02,5.240000000000000213e-01
2.224454475481945082e-01,4.744389927074779689e-01,-4.584392068526819963e-02,5.260000000000000231e-01
2.272284719363920069e-01,4.846403849941872122e-01,-2.805207254621789464e-02,5.360000000000000320e-01
2.198655373325557327e-01,4.689364750453972608e-01,-9.040346534512858773e-03,5.180000000000000160e-01
2.198655373325557327e-01,4.689364750453972608e-01,9.040346534512858773e-03,5.180000000000000160e-01
2.083579773161805537e-01,4.443927712165876565e-01,-9.540449768827240218e-02,5.000000000000000000e-01
2.207880423584962781e-01,4.709040242135140719e-01,-6.385953594429727431e-02,5.240000000000000213e-01
2.207538471866112573e-01,4.708310916222500087e-01,-4.549529771427756469e-02,5.220000000000000195e-01
2.238370022059980868e-01,4.774069464121843964e-01,-2.763338489627434336e-02,5.280000000000000249e-01
2.198655373325557327e-01,4.689364750453972608e-01,-9.040346534512858773e-03,5.180000000000000160e-01
2.214109048985361816e-01,4.637809188179046749e-01,8.970536908763725170e-03,5.140000000000000124e-01
2.131469639607605771e-01,4.464707591266518505e-01,-9.616773366977858506e-02,5.040000000000000036e-01
2.240701654780388463e-01,4.693511698202352256e-01,-6.385953594429727431e-02,5.240000000000000213e-01
2.291857024833050538e-01,4.800664887140203563e-01,-4.654116662724946257e-02,5.340000000000000302e-01
2.288853924172357945e-01,4.794374407525584525e-01,-2.784272872124611900e-02,5.320000000000000284e-01
2.239954679907369961e-01,4.691947038624716959e-01,-9.075251347387425574e-03,5.200000000000000178e-01
2.239954679907369961e-01,4.691947038624716959e-01,9.075251347387425574e-03,5.200000000000000178e-01
2.178672372071602803e-01,4.563581342055353374e-01,-8.009444610059821001e-02,5.120000000000000107e-01
2.206492469211222274e-01,4.621855031054225016e-01,-6.288458119705610250e-02,5.160000000000000142e-01
2.274689556482240860e-01,4.764704850532411329e-01,-4.619254365625882763e-02,5.300000000000000266e-01
2.349086922176894243e-01,4.920542155092048064e-01,-2.857543210864733202e-02,5.460000000000000409e-01
2.205493838678025675e-01,4.619763238030490382e-01,-8.935632095889158369e-03,5.120000000000000107e-01
2.298878748880909539e-01,4.730151088576400875e-01,9.179965786011127712e-03,5.260000000000000231e-01
2.193209462754071581e-01,4.512726968646078030e-01,-7.946870824043728021e-02,5.080000000000000071e-01
2.282090828778541580e-01,4.695608423555113764e-01,-6.410327463110757074e-02,5.260000000000000231e-01
2.334024913258228862e-01,4.802467502728122728e-01,-4.671547811274477657e-02,5.360000000000000320e-01
2.418302599352185611e-01,4.975876469518602518e-01,-2.899411975859088331e-02,5.540000000000000480e-01
2.237691862028566014e-01,4.604253531085774620e-01,-8.935632095889158369e-03,5.120000000000000107e-01
2.138080839708992875e-01,4.399294837249266288e-01,-1.129254292806202292e-01,5.020000000000000018e-01
2.184574779829843161e-01,4.494960327037235692e-01,-7.915583931035681531e-02,5.060000000000000053e-01
2.299445131658986730e-01,4.731316472403441775e-01,-6.459075200472816358e-02,5.300000000000000266e-01
2.316606816890630083e-01,4.766628193006270386e-01,-4.636685514175414857e-02,5.320000000000000284e-01
2.505605942289088062e-01,5.155510999104111480e-01,-3.004083888344976153e-02,5.740000000000000657e-01
2.272655797372762077e-01,4.676194992508989623e-01,-9.075251347387425574e-03,5.200000000000000178e-01
2.207143525302714682e-01,4.461893775167198317e-01,-7.884297038027636428e-02,5.040000000000000036e-01
2.350022814801094317e-01,4.750734172316131154e-01,-6.507822937834875643e-02,5.340000000000000302e-01
2.385163185877492154e-01,4.821772870599850824e-01,-4.706410108373541151e-02,5.400000000000000355e-01
2.488403672198131189e-01,5.030480676856408095e-01,-2.941280740853443459e-02,5.620000000000000551e-01
2.411642124899329165e-01,4.875301883027061689e-01,-9.494109101882230659e-03,5.440000000000000391e-01
2.211008440321785562e-01,4.469706969038574340e-01,-9.693096965128476794e-02,5.080000000000000071e-01
2.233419043461080389e-01,4.515011558204903297e-01,-7.978157717051774511e-02,5.100000000000000089e-01
2.314816480496958151e-01,4.679562124790795918e-01,-6.410327463110757074e-02,5.260000000000000231e-01
2.402831061328436768e-01,4.857489706678368435e-01,-4.741272405472604645e-02,5.440000000000000391e-01
2.523825788528353820e-01,5.102088942719132936e-01,-2.983149505847798588e-02,5.700000000000000622e-01
2.500305438314745499e-01,5.054540922844232842e-01,-9.843157230627902141e-03,5.640000000000000568e-01
2.233331350768844592e-01,4.436626347470126186e-01,-9.654935166053167650e-02,5.060000000000000053e-01
2.300412696767046017e-01,4.569886854012034649e-01,-8.103305289083959084e-02,5.180000000000000160e-01
2.409908418471388980e-01,4.787405675695841634e-01,-6.580944543877964570e-02,5.400000000000000355e-01
2.436683906067406979e-01,4.840596543989504341e-01,-4.741272405472604645e-02,5.440000000000000391e-01
2.577343880177507818e-01,5.120024738536858022e-01,-3.004083888344976153e-02,5.740000000000000657e-01
2.526540326789437629e-01,5.019100895136269225e-01,-9.808252417753335339e-03,5.620000000000000551e-01
2.190534039884162454e-01,4.351607312114497139e-01,-1.124755271719325017e-01,5.000000000000000000e-01
2.215676557482134101e-01,4.401554202430836282e-01,-9.578611567902549362e-02,5.020000000000000018e-01
2.300412696767046017e-01,4.569886854012034649e-01,-8.103305289083959084e-02,5.180000000000000160e-01
2.418834005206468574e-01,4.805136807828049306e-01,-6.605318412558994212e-02,5.420000000000000373e-01
2.454600699494372817e-01,4.876189165636485301e-01,-4.776134702571668139e-02,5.480000000000000426e-01
2.595304464708361181e-01,5.155704353439551912e-01,-3.025018270842153023e-02,5.779999999999999583e-01
2.535531573503990721e-01,5.036962464158106778e-01,-9.843157230627902141e-03,5.640000000000000568e-01
2.220860361475185951e-01,4.336208578189925666e-01,-1.124755271719325017e-01,5.000000000000000000e-01
2.264250169435690074e-01,4.420926762524295950e-01,-9.654935166053167650e-02,5.060000000000000053e-01
2.296240744336162376e-01,4.483388053522579519e-01,-7.978157717051774511e-02,5.100000000000000089e-01
2.506615899992472585e-01,4.894143529381940749e-01,-6.751561624645170678e-02,5.540000000000000480e-01
2.488582828434197092e-01,4.858934129935428281e-01,-4.776134702571668139e-02,5.480000000000000426e-01
2.667653004126055438e-01,5.208566932340545907e-01,-3.066887035836508152e-02,5.859999999999999654e-01
2.616212749795867043e-01,5.108130328598980974e-01,-1.001768129500073615e-02,5.740000000000000657e-01
2.282149380261268568e-01,4.455874800172709427e-01,-9.731258764203784550e-02,5.100000000000000089e-01
2.296240744336162376e-01,4.483388053522579519e-01,-7.978157717051774511e-02,5.100000000000000089e-01
2.506615899992472585e-01,4.894143529381940749e-01,-6.751561624645170678e-02,5.540000000000000480e-01
2.561242181089210534e-01,5.000800819860551361e-01,-4.915583890967920727e-02,5.640000000000000568e-01
2.576606826510832171e-01,5.030800142840869960e-01,-2.962215123350621024e-02,5.660000000000000586e-01
2.652675645263405380e-01,5.179323782656108932e-01,-1.015730054649900335e-02,5.819999999999999618e-01
2.349486899690147734e-01,4.509478388663518134e-01,-9.883905960505021127e-02,5.180000000000000160e-01
2.354866656006066317e-01,4.519804002671456988e-01,-8.072018396075912594e-02,5.160000000000000142e-01
2.476516131661525566e-01,4.753291442645218301e-01,-6.580944543877964570e-02,5.400000000000000355e-01
2.577679660073695089e-01,4.947459260799808023e-01,-4.880721593868857927e-02,5.600000000000000533e-01
2.648579359769760999e-01,5.083540319002051167e-01,-3.004083888344976153e-02,5.740000000000000657e-01
2.734967992581733842e-01,5.249349999721342197e-01,-1.033182461087183909e-02,5.919999999999999707e-01
2.332117265358110980e-01,4.476140049705493174e-01,-1.165246461501220770e-01,5.180000000000000160e-01
2.295058631743657762e-01,4.405011707845057911e-01,-9.654935166053167650e-02,5.060000000000000053e-01
2.354866656006066317e-01,4.519804002671456988e-01,-8.072018396075912594e-02,5.160000000000000142e-01
2.540722105445342716e-01,4.876524924491576485e-01,-6.751561624645170678e-02,5.540000000000000480e-01
2.632915652789560301e-01,5.053476244959804742e-01,-4.985308485166047715e-02,5.720000000000000639e-01
2.630122360746974808e-01,5.048114950925380873e-01,-2.983149505847798588e-02,5.700000000000000622e-01
2.698008965654953850e-01,5.178412837562945681e-01,-1.019220535937357015e-02,5.839999999999999636e-01
2.325277697523691345e-01,4.391685348646870990e-01,-1.147250377153711531e-01,5.100000000000000089e-01
2.370156348218783182e-01,4.476446370065761959e-01,-9.845744161429711983e-02,5.160000000000000142e-01
2.467981508209169672e-01,4.661205946230078667e-01,-8.353600433148328230e-02,5.340000000000000302e-01
2.600874843742395637e-01,4.912197780545444759e-01,-6.824683230688259605e-02,5.600000000000000533e-01
2.638404472257181999e-01,4.983078914383381464e-01,-4.933015039517452821e-02,5.660000000000000586e-01
2.700927719080160050e-01,5.101164778843666481e-01,-3.025018270842153023e-02,5.779999999999999583e-01
2.676150884741005376e-01,5.054369481890964577e-01,-9.982776482126169346e-03,5.720000000000000639e-01
2.343515169661132547e-01,4.426129939616650910e-01,-1.156248419327466082e-01,5.140000000000000124e-01
2.434462915806114292e-01,4.597900341346615738e-01,-1.011287675495687460e-01,5.300000000000000266e-01
2.467981508209169672e-01,4.661205946230078667e-01,-8.353600433148328230e-02,5.340000000000000302e-01
2.665896714835955805e-01,5.035002725059081197e-01,-6.995300311455465714e-02,5.740000000000000657e-01
2.601112536253546992e-01,4.912646703579376384e-01,-4.863290445319325833e-02,5.580000000000000515e-01
2.738310801697186880e-01,5.171769135644270765e-01,-3.066887035836508152e-02,5.859999999999999654e-01
2.694865226592341179e-01,5.089714723023068821e-01,-1.005258610787530468e-02,5.760000000000000675e-01
2.338160653156130253e-01,4.340620506557233416e-01,-1.138252334979956981e-01,5.060000000000000053e-01
2.411438744524208588e-01,4.476655806631379964e-01,-9.883905960505021127e-02,5.180000000000000160e-01
2.482536799325352761e-01,4.608644031747393677e-01,-8.291026647132236638e-02,5.300000000000000266e-01
2.683029598462368659e-01,4.980843929208024212e-01,-6.946552574093406429e-02,5.700000000000000622e-01
2.645648547388563809e-01,4.911448801619763271e-01,-4.880721593868857927e-02,5.600000000000000533e-01
2.680530392326984090e-01,4.976204339799690790e-01,-2.962215123350621024e-02,5.660000000000000586e-01
2.750183939719185178e-01,5.105510944868481005e-01,-1.012239573362443655e-02,5.799999999999999600e-01
2.356644136580289262e-01,4.374933712142666242e-01,-1.147250377153711531e-01,5.100000000000000089e-01
2.532476210465577915e-01,4.701352816230637277e-01,-1.038000934848403861e-01,5.440000000000000391e-01
2.510640989506394138e-01,4.660817360408684440e-01,-8.384887326156374721e-02,5.360000000000000320e-01
2.683029598462368659e-01,4.980843929208024212e-01,-6.946552574093406429e-02,5.700000000000000622e-01
2.740135995509583311e-01,5.086857687391896921e-01,-5.055033079364173315e-02,5.799999999999999600e-01
2.718417747695563436e-01,5.046539383471770890e-01,-3.004083888344976153e-02,5.740000000000000657e-01
2.778634118405935438e-01,5.158326575332636832e-01,-1.022711017224813695e-02,5.859999999999999654e-01
2.387129257855840903e-01,4.358374751947025061e-01,-1.147250377153711531e-01,5.100000000000000089e-01
2.489787749934992134e-01,4.545806655132950680e-01,-1.007471495588156546e-01,5.280000000000000249e-01
2.628521408819986527e-01,4.799103905015724147e-01,-8.666469363228790357e-02,5.540000000000000480e-01
2.708200864360492122e-01,4.944581124623241286e-01,-6.922178705412376787e-02,5.680000000000000604e-01
2.718156065571394886e-01,4.962757139795174188e-01,-4.950446188066984221e-02,5.680000000000000604e-01
2.791960166140938782e-01,5.097507249138387708e-01,-3.045952653339330587e-02,5.819999999999999618e-01
2.680093068723296001e-01,4.893262451185307338e-01,-9.738442792004200002e-03,5.580000000000000515e-01
2.387129257855840903e-01,4.358374751947025061e-01,-1.147250377153711531e-01,5.100000000000000089e-01
2.470925721526393282e-01,4.511368725927397128e-01,-9.998391357730948559e-02,5.240000000000000213e-01
2.628521408819986527e-01,4.799103905015724147e-01,-8.666469363228790357e-02,5.540000000000000480e-01
2.746344538506414468e-01,5.014223112293991758e-01,-7.019674180136495356e-02,5.760000000000000675e-01
2.756439953818879407e-01,5.032655127679612761e-01,-5.020170782265111209e-02,5.760000000000000675e-01
2.791960166140938782e-01,5.097507249138387708e-01,-3.045952653339330587e-02,5.819999999999999618e-01
2.651274863683260596e-01,4.840646725903745007e-01,-9.633728353380499598e-03,5.520000000000000462e-01
2.427739105612298220e-01,4.358205612259848372e-01,-1.151749398240588806e-01,5.120000000000000107e-01
2.579576764675564071e-01,4.630780097859291677e-01,-1.030368575033342032e-01,5.400000000000000355e-01
2.653182505009935022e-01,4.762914951179491596e-01,-8.635182470220745254e-02,5.520000000000000462e-01
2.772494685562325034e-01,4.977100657416341223e-01,-6.995300311455465714e-02,5.740000000000000657e-01
2.763294685759202229e-01,4.960585089214605281e-01,-4.967877336616516315e-02,5.700000000000000622e-01
2.847804306473488145e-01,5.112294266875218041e-01,-3.066887035836508152e-02,5.859999999999999654e-01
2.588532381632698276e-01,4.646856957186392689e-01,-9.284680224634828116e-03,5.320000000000000284e-01
2.380322326205807915e-01,4.273084408895398423e-01,-1.129254292806202292e-01,5.020000000000000018e-01
2.617792716744832271e-01,4.699384247457207286e-01,-1.045633294663465551e-01,5.480000000000000426e-01
2.662795485100550863e-01,4.780171889408402763e-01,-8.666469363228790357e-02,5.540000000000000480e-01
2.878757548075166484e-01,5.167860612927070996e-01,-7.263412866946789004e-02,5.959999999999999742e-01
2.763294685759202229e-01,4.960585089214605281e-01,-4.967877336616516315e-02,5.700000000000000622e-01
2.789487494736830331e-01,5.007605647075726862e-01,-3.004083888344976153e-02,5.740000000000000657e-01
2.452293835230977548e-01,4.402285538387109010e-01,-8.796012844390889429e-03,5.040000000000000036e-01
2.630378501280367098e-01,4.647285551723273067e-01,-1.038000934848403861e-01,5.440000000000000391e-01
2.695271145279722891e-01,4.761936217672881888e-01,-8.666469363228790357e-02,5.540000000000000480e-01
2.855198633250822238e-01,5.044492018600281735e-01,-7.117169654860612538e-02,5.839999999999999636e-01
2.904950275180445129e-01,5.132391948820020922e-01,-5.159619970661363103e-02,5.919999999999999707e-01
2.912050372628515738e-01,5.144936219642711750e-01,-3.098288609582274325e-02,5.919999999999999707e-01
2.447748984338774525e-01,4.324620385859221927e-01,-1.147250377153711531e-01,5.100000000000000089e-01
2.649719519672135148e-01,4.681456769015356900e-01,-1.045633294663465551e-01,5.480000000000000426e-01
2.743922248985132817e-01,4.847891745067698932e-01,-8.822903828269021420e-02,5.640000000000000568e-01
2.904089020806486787e-01,5.130870306590011865e-01,-7.239038998265759361e-02,5.939999999999999725e-01
2.875508211580643514e-01,5.080374462852250694e-01,-5.107326525012768209e-02,5.859999999999999654e-01
2.931726388659789406e-01,5.179699302207865230e-01,-3.119222992079451889e-02,5.959999999999999742e-01
2.506271501397498991e-01,4.358539725740064874e-01,-1.160747440414343495e-01,5.160000000000000142e-01
2.681523555448440121e-01,4.663312388706807310e-01,-1.045633294663465551e-01,5.480000000000000426e-01
2.796551001791854896e-01,4.863351248885623979e-01,-8.885477614285114401e-02,5.680000000000000604e-01
2.948841642888948567e-01,5.128192790877378338e-01,-7.263412866946789004e-02,5.959999999999999742e-01
2.860363258021461075e-01,4.974324163675883370e-01,-5.020170782265111209e-02,5.760000000000000675e-01
2.917134836638987649e-01,5.073052964829107836e-01,-3.066887035836508152e-02,5.859999999999999654e-01
2.545128423899786219e-01,4.426113985053863886e-01,-1.178743524761852735e-01,5.240000000000000213e-01
2.720669884725059884e-01,4.731389941826614209e-01,-1.060898014293589209e-01,5.560000000000000497e-01
2.757162959513096423e-01,4.794853343971741677e-01,-8.760330042252929827e-02,5.600000000000000533e-01
3.028005176926235609e-01,5.265862396001603773e-01,-7.458403816395024755e-02,6.119999999999999885e-01
2.890158708625850115e-01,5.026140040380838725e-01,-5.072464227913704715e-02,5.819999999999999618e-01
2.976871386194734903e-01,5.176938008477485198e-01,-3.129690183328040498e-02,5.979999999999999760e-01
2.476906877411282348e-01,4.240416930429029563e-01,-1.133753313893079567e-01,5.040000000000000036e-01
2.742909956552654904e-01,4.695809085307379727e-01,-1.057081834386058294e-01,5.540000000000000480e-01
2.869443119611270743e-01,4.912431426578144911e-01,-9.010625186317298974e-02,5.760000000000000675e-01
3.123852426642024782e-01,5.347975266611172396e-01,-7.604647028481202609e-02,6.239999999999999991e-01
2.974549102730458250e-01,5.092370847947833568e-01,-5.159619970661363103e-02,5.919999999999999707e-01
2.931450739858617038e-01,5.018587279715129856e-01,-3.045952653339330587e-02,5.819999999999999618e-01
2.802323168607946946e-01,4.797523361523423624e-01,-1.079978913831243642e-01,5.660000000000000586e-01
2.909296496272538168e-01,4.980659640836174185e-01,-9.135772758349482159e-02,5.839999999999999636e-01
3.043753646471716867e-01,5.210847695672424784e-01,-7.409656079032966858e-02,6.079999999999999849e-01
3.014745712226816199e-01,5.161186670217400296e-01,-5.229344564859490091e-02,5.999999999999999778e-01
2.860934742679887566e-01,4.897865248931604909e-01,-2.972682314599209633e-02,5.680000000000000604e-01
2.795666398651080464e-01,4.710311356175934105e-01,-1.064714194201120123e-01,5.580000000000000515e-01
2.933914699080857336e-01,4.943240628352544852e-01,-9.104485865341435669e-02,5.819999999999999618e-01
3.009135373928420454e-01,5.069977065548574302e-01,-7.239038998265759361e-02,5.939999999999999725e-01
3.071041858142161685e-01,5.174280932330966865e-01,-5.264206861958552891e-02,6.039999999999999813e-01
2.895058295925428404e-01,4.877772961276287678e-01,-2.972682314599209633e-02,5.680000000000000604e-01
2.566127351570158255e-01,4.323569797643502799e-01,-1.160747440414343495e-01,5.160000000000000142e-01
2.775625779305911367e-01,4.676545683371806095e-01,-1.057081834386058294e-01,5.540000000000000480e-01
3.004489966756341834e-01,5.062150196732159158e-01,-9.323494116397759712e-02,5.959999999999999742e-01
3.039530680735778034e-01,5.121188955099570395e-01,-7.312160604308848288e-02,5.999999999999999778e-01
3.071041858142161685e-01,5.174280932330966865e-01,-5.264206861958552891e-02,6.039999999999999813e-01
2.915446030403776589e-01,4.912123475088092661e-01,-2.993616697096387197e-02,5.720000000000000639e-01
2.567545131855334395e-01,4.254589118587908669e-01,-1.147250377153711531e-01,5.100000000000000089e-01
2.921413536513551845e-01,4.840972058927102140e-01,-1.099059813368898214e-01,5.760000000000000675e-01
3.000690687776208510e-01,4.972339449875753936e-01,-9.198346544365575139e-02,5.879999999999999671e-01
3.169298625485164056e-01,5.251733758541985431e-01,-7.531525422438113682e-02,6.179999999999999938e-01
3.067711137897355389e-01,5.083396690611478030e-01,-5.194482267760426597e-02,5.959999999999999742e-01
2.972014110843728130e-01,4.924820498539106417e-01,-3.014551079593564761e-02,5.760000000000000675e-01
2.547407522978037964e-01,4.221219792167611451e-01,-1.138252334979956981e-01,5.060000000000000053e-01
2.921413536513551845e-01,4.840972058927102140e-01,-1.099059813368898214e-01,5.760000000000000675e-01
3.000690687776208510e-01,4.972339449875753936e-01,-9.198346544365575139e-02,5.879999999999999671e-01
3.169298625485164056e-01,5.251733758541985431e-01,-7.531525422438113682e-02,6.179999999999999938e-01
3.129477133962403346e-01,5.185746959549965007e-01,-5.299069159057616385e-02,6.079999999999999849e-01
2.879138669879862111e-01,4.770919857959759480e-01,-2.920346358356265895e-02,5.580000000000000515e-01
3.066261187696748269e-01,5.005644322687099468e-01,-1.141037792351737856e-01,5.979999999999999760e-01
3.012965504968811992e-01,4.918639591080650741e-01,-9.135772758349482159e-02,5.839999999999999636e-01
3.079629989581227911e-01,5.027468773755614517e-01,-7.239038998265759361e-02,5.939999999999999725e-01
3.142986748797176322e-01,5.130898123918504750e-01,-5.264206861958552891e-02,6.039999999999999813e-01
2.827255633978612570e-01,4.615469865970794894e-01,-2.836608828367555638e-02,5.420000000000000373e-01
2.554989003581243923e-01,4.170996995174857114e-01,-1.129254292806202292e-01,5.020000000000000018e-01
3.045751079417840512e-01,4.972161751966784893e-01,-1.133405432536676027e-01,5.939999999999999725e-01
3.126467630155992938e-01,5.103930808552866738e-01,-9.479928581437990776e-02,6.059999999999999831e-01
3.058891740493139277e-01,4.993613765178135933e-01,-7.190291260903700077e-02,5.899999999999999689e-01
3.142986748797176322e-01,5.130898123918504750e-01,-5.264206861958552891e-02,6.039999999999999813e-01
2.848120989210927156e-01,4.649532374206741259e-01,-2.857543210864733202e-02,5.460000000000000409e-01
2.719405193630027862e-01,4.367207959673020112e-01,-1.187741566935607285e-01,5.280000000000000249e-01
3.113249264310782860e-01,4.999698830976775921e-01,-1.144853972259268771e-01,5.999999999999999778e-01
3.195121786160166621e-01,5.131181380887569476e-01,-9.573789260462128858e-02,6.119999999999999885e-01
3.168864839272219625e-01,5.089014237971773991e-01,-7.360908341670907573e-02,6.039999999999999813e-01
3.117324408286062387e-01,5.006243277257654833e-01,-5.159619970661363103e-02,5.919999999999999707e-01
2.913798740980665936e-01,4.679392789387764040e-01,-2.888944784610499375e-02,5.520000000000000462e-01
2.801811411618816972e-01,4.499547594814626295e-01,-1.223733735630625763e-01,5.440000000000000391e-01
3.175514249596998462e-01,5.099692807596311050e-01,-1.167751051704454118e-01,6.119999999999999885e-01
3.163797062766439128e-01,5.080875681074945582e-01,-9.479928581437990776e-02,6.059999999999999831e-01
3.200343629066313977e-01,5.139567359541029612e-01,-7.434029947713996500e-02,6.099999999999999867e-01
3.117324408286062387e-01,5.006243277257654833e-01,-5.159619970661363103e-02,5.919999999999999707e-01
2.839898048274634990e-01,4.560712537483002094e-01,-2.815674445870378073e-02,5.380000000000000338e-01
2.789950647082344304e-01,4.414971359264189821e-01,-1.205737651283116524e-01,5.360000000000000320e-01
3.240730003228720069e-01,5.128309406593118958e-01,-1.179199591427046862e-01,6.179999999999999938e-01
3.176319762314139261e-01,5.026383098621124423e-01,-9.417354795421897795e-02,6.019999999999999796e-01
3.297986646658607746e-01,5.218915468436871041e-01,-7.580273159800172966e-02,6.219999999999999973e-01
3.171745147587721747e-01,5.019143976661055717e-01,-5.194482267760426597e-02,5.959999999999999742e-01
2.795396979955604433e-01,4.423589935966831255e-01,-2.742404107130256771e-02,5.240000000000000213e-01
2.831591701516408821e-01,4.480866454178580871e-01,-1.223733735630625763e-01,5.440000000000000391e-01
3.177803207049521017e-01,5.028730583164126022e-01,-1.156302511981861514e-01,6.059999999999999831e-01
3.165767204964258230e-01,5.009684151449624867e-01,-9.386067902413851305e-02,5.999999999999999778e-01
3.276777729316752152e-01,5.185353311083579220e-01,-7.531525422438113682e-02,6.179999999999999938e-01
3.150458267402569401e-01,4.985458446616350958e-01,-5.159619970661363103e-02,5.919999999999999707e-01
2.710041346979860655e-01,4.288518487540362578e-01,-2.658666577141546514e-02,5.080000000000000071e-01
2.915429880802179463e-01,4.542992657469693829e-01,-1.246228841065012277e-01,5.540000000000000480e-01
3.191625827268330662e-01,4.973377269043123827e-01,-1.148670152166799685e-01,6.019999999999999796e-01
3.189995086634022647e-01,4.970836153999786955e-01,-9.354781009405806202e-02,5.979999999999999760e-01
3.280734117778262293e-01,5.112230997672300159e-01,-7.458403816395024755e-02,6.119999999999999885e-01
3.228229333862239203e-01,5.030414985089312063e-01,-5.229344564859490091e-02,5.999999999999999778e-01
3.073305145105545977e-01,4.789003090184658085e-01,-1.313714157368171542e-01,5.839999999999999636e-01
3.181022419204316276e-01,4.956854420973213493e-01,-1.144853972259268771e-01,5.999999999999999778e-01
3.275346125741287473e-01,5.103835114641922521e-01,-9.605076153470175349e-02,6.139999999999999902e-01
3.366504944386844445e-01,5.245884095650660273e-01,-7.653394765843261893e-02,6.280000000000000027e-01
3.163664747184993797e-01,4.929806685387526088e-01,-5.124757673562299609e-02,5.879999999999999671e-01
3.159859821254488721e-01,4.849064932130957017e-01,-1.336209262802558195e-01,5.939999999999999725e-01
3.258423990782470248e-01,5.000319761477468594e-01,-1.160118691889392428e-01,6.079999999999999849e-01
3.213835367352777528e-01,4.931894849463783759e-01,-9.323494116397759712e-02,5.959999999999999742e-01
3.478909865463813977e-01,5.338673480764630774e-01,-7.824011846610468002e-02,6.420000000000000151e-01
3.219759043266781640e-01,4.940985217634768500e-01,-5.159619970661363103e-02,5.919999999999999707e-01
3.982567985877077277e+00,6.111578314406695966e+00,1.954601428614236802e+00,7.552000000000000490e+00
3.085385010652530458e-01,4.734777206457835841e-01,-1.304716115194416992e-01,5.799999999999999600e-01
3.226268490873432371e-01,4.950974500673414047e-01,-1.148670152166799685e-01,6.019999999999999796e-01
3.310897509319808418e-01,5.080844693910677723e-01,-9.605076153470175349e-02,6.139999999999999902e-01
3.457234414588650218e-01,5.305410717644601926e-01,-7.775264109248408717e-02,6.380000000000000115e-01
3.241514171937502908e-01,4.974370252889057653e-01,-5.194482267760426597e-02,5.959999999999999742e-01
3.984677396886546319e+00,6.114815379191869127e+00,1.955636704794646796e+00,7.556000000000000050e+00
3.163044148295457991e-01,4.777026706343268092e-01,-1.322712199541926092e-01,5.879999999999999671e-01
3.327506728659268553e-01,5.025408360774308303e-01,-1.171567231611985033e-01,6.139999999999999902e-01
3.424392723456727294e-01,5.171731637630090361e-01,-9.824084404526498004e-02,6.280000000000000027e-01
3.452194481842235652e-01,5.213719588497751634e-01,-7.677768634524291536e-02,6.300000000000000044e-01
3.211892992392457735e-01,4.850801279787371745e-01,-5.089895376463236809e-02,5.839999999999999636e-01
4.031526959470644655e+00,6.088663657480887004e+00,1.956671980975057012e+00,7.560000000000000497e+00
3.152285494729827331e-01,4.760778316185637626e-01,-1.318213178455048817e-01,5.859999999999999654e-01
3.273312807997065255e-01,4.943561319067886761e-01,-1.152486332074330599e-01,6.039999999999999813e-01
3.369864176904868169e-01,5.089379223018145604e-01,-9.667649939486266941e-02,6.179999999999999938e-01
3.375479048912407576e-01,5.097859153197801252e-01,-7.507151553757084039e-02,6.159999999999999920e-01
3.255891526534819835e-01,4.917250612387198405e-01,-5.159619970661363103e-02,5.919999999999999707e-01
4.040059291660000440e+00,6.101549718131640709e+00,1.960813085696697211e+00,7.576000000000000512e+00
3.109342129020489232e-01,4.625445177160320553e-01,-1.286720030846907892e-01,5.720000000000000639e-01
3.406320519935497892e-01,5.067229068729496300e-01,-1.186831951242108690e-01,6.219999999999999973e-01
3.482455334723989493e-01,5.180486921119115129e-01,-9.886658190542590985e-02,6.320000000000000062e-01
3.455284795600367942e-01,5.140068133499305914e-01,-7.604647028481202609e-02,6.239999999999999991e-01
3.201218065197139473e-01,4.762119460095936008e-01,-5.020170782265111209e-02,5.760000000000000675e-01
4.078246302465101003e+00,6.066783232037443518e+00,1.958742533335877001e+00,7.568000000000000504e+00
3.087598477768597749e-01,4.593099406690667741e-01,-1.277721988673153342e-01,5.680000000000000604e-01
3.428226118134440892e-01,5.099815750843513795e-01,-1.194464311057170519e-01,6.260000000000000009e-01
3.427353193351774796e-01,5.098517191354571265e-01,-9.730223725502359922e-02,6.219999999999999973e-01
3.433135534090108743e-01,5.107118978797386966e-01,-7.555899291119143324e-02,6.199999999999999956e-01
3.201218065197139473e-01,4.762119460095936008e-01,-5.020170782265111209e-02,5.760000000000000675e-01
4.078246302465101003e+00,6.066783232037443518e+00,1.958742533335877001e+00,7.568000000000000504e+00
2.757101420013211013e-01,4.040244609171566026e-01,-1.129254292806202292e-01,5.020000000000000018e-01
3.430546875182901578e-01,5.027108694065256511e-01,-1.183015771334577776e-01,6.199999999999999956e-01
3.440594526581792767e-01,5.041832479379984022e-01,-9.667649939486266941e-02,6.179999999999999938e-01
3.502274120523432011e-01,5.132217492100119571e-01,-7.629020897162232251e-02,6.260000000000000009e-01
3.301768683652179792e-01,4.838397683895609425e-01,-5.124757673562299609e-02,5.879999999999999671e-01
4.118322856895023421e+00,6.034972671160726776e+00,1.957707257155466785e+00,7.564000000000000057e+00
3.463745715910477863e-01,5.075758133040082498e-01,-1.194464311057170519e-01,6.260000000000000009e-01
3.485132967055343256e-01,5.107098919242508694e-01,-9.792797511518452902e-02,6.260000000000000009e-01
3.401569752840649108e-01,4.984645743125994954e-01,-7.409656079032966858e-02,6.079999999999999849e-01
3.279307672198763512e-01,4.805483413937135517e-01,-5.089895376463236809e-02,5.839999999999999636e-01
3.441465053502803517e-01,4.971960591300345622e-01,-1.175383411519515947e-01,6.159999999999999920e-01
3.563897953067825530e-01,5.148842106077414771e-01,-9.917945083550637475e-02,6.340000000000000080e-01
3.389362619648891850e-01,4.896687054069795431e-01,-7.312160604308848288e-02,5.999999999999999778e-01
3.254409459778614400e-01,4.701717242633374760e-01,-5.002739633715579115e-02,5.740000000000000657e-01
3.463812229174900170e-01,5.004246049685413533e-01,-1.183015771334577776e-01,6.199999999999999956e-01
3.530170212187057066e-01,5.100114893717060394e-01,-9.824084404526498004e-02,6.280000000000000027e-01
3.411958370446551148e-01,4.929331634430260678e-01,-7.360908341670907573e-02,6.039999999999999813e-01
3.197712430862610922e-01,4.619805792413281265e-01,-4.915583890967920727e-02,5.640000000000000568e-01
3.522110504832551836e-01,5.011456337187629728e-01,-1.190648131149639605e-01,6.239999999999999991e-01
3.487065536996064585e-01,4.961592391718079864e-01,-9.605076153470175349e-02,6.139999999999999902e-01
3.549873735554230358e-01,5.050959418749113583e-01,-7.580273159800172966e-02,6.219999999999999973e-01
3.207776227378362766e-01,4.564203900166781680e-01,-4.880721593868857927e-02,5.600000000000000533e-01
7.386985228566088635e-01,1.051061682636471595e+00,3.442293299863525835e-01,1.330000000000000071e+00
3.476955241950082653e-01,4.947206896967275558e-01,-1.175383411519515947e-01,6.159999999999999920e-01
3.441631458338135219e-01,4.896946236777127148e-01,-9.479928581437990776e-02,6.059999999999999831e-01
3.515630580548884110e-01,5.002236337539314182e-01,-7.507151553757084039e-02,6.159999999999999920e-01
