2.693784216757910688e-01,7.054323545431644416e-01,6.606405300272488734e-02,7.580000000000000071e-01
2.705163012738537320e-01,7.084121666567497755e-01,9.310817836153267857e-02,7.640000000000000124e-01
2.649641638565729540e-01,6.938725559980553070e-01,1.176387177102536097e-01,7.520000000000000018e-01
2.615600505981295898e-01,6.849580645696161652e-01,-6.414662666227641252e-02,7.359999999999999876e-01
2.717425647806815947e-01,7.116234333481591401e-01,1.480677804121987851e-01,7.760000000000000231e-01
2.700368195356947498e-01,7.071565281040930184e-01,-3.967065483215142380e-02,7.580000000000000071e-01
2.697335861465327000e-01,7.063624383534664597e-01,1.745620181708392449e-01,7.760000000000000231e-01
2.632325457990890016e-01,6.893378965555461146e-01,-1.287987595071523120e-02,7.379999999999999893e-01
2.680851435804610383e-01,7.020455939919953980e-01,2.013612170897611520e-01,7.780000000000000249e-01
2.232555948846551841e-01,5.723258208549514281e-01,-1.646089126852031959e-01,6.360000000000000098e-01
2.710654305913875461e-01,6.948884983096103030e-01,1.301949520221350014e-02,7.459999999999999964e-01
2.499942912441867893e-01,6.408716790246722361e-01,-1.588154443667686710e-01,7.059999999999999609e-01
2.736385054362668323e-01,7.014846921182249506e-01,3.946131100717964468e-02,7.540000000000000036e-01
2.575640417987841713e-01,6.602770771382804327e-01,-1.377640946618653439e-01,7.219999999999999751e-01
2.715232022791840283e-01,6.960620167476033737e-01,6.536680706074363134e-02,7.500000000000000000e-01
2.770214431578932324e-01,7.101570060614940116e-01,9.359565573515325754e-02,7.680000000000000160e-01
2.756656192252962545e-01,7.066812900528570696e-01,1.201416691508973150e-01,7.680000000000000160e-01
2.650066454244836001e-01,6.793565283456608483e-01,-6.379800369128577064e-02,7.319999999999999840e-01
2.725469915987134284e-01,6.986865469995101607e-01,1.457780724676802364e-01,7.640000000000000124e-01
2.758160001744864309e-01,7.070667984215529556e-01,-3.977532674463730988e-02,7.600000000000000089e-01
2.761976588816794642e-01,7.080451977892980864e-01,1.754618223882146999e-01,7.800000000000000266e-01
2.710654305913875461e-01,6.948884983096103030e-01,-1.301949520221350014e-02,7.459999999999999964e-01
2.723999082240446401e-01,6.983094921123306209e-01,2.008435789995560994e-01,7.760000000000000231e-01
2.246597181229234574e-01,5.759253543194480240e-01,-1.656441888656132733e-01,6.400000000000000133e-01
2.710654305913875461e-01,6.948884983096103030e-01,1.301949520221350014e-02,7.459999999999999964e-01
2.570762824975631466e-01,6.590266840961926942e-01,-1.633144654536459739e-01,7.259999999999999787e-01
2.765418317538929638e-01,7.089275005226624016e-01,3.987999865712319597e-02,7.620000000000000107e-01
2.561370941987908822e-01,6.566190323895919612e-01,-1.370008586803591610e-01,7.179999999999999716e-01
2.736953878974174859e-01,7.016305128815841785e-01,6.588974151722958028e-02,7.560000000000000053e-01
2.755786231414458776e-01,7.064582716549236974e-01,9.310817836153267857e-02,7.640000000000000124e-01
2.756656192252962545e-01,7.066812900528570696e-01,1.201416691508973150e-01,7.680000000000000160e-01
2.707991404064395424e-01,6.942058513696097721e-01,-6.519249557524831040e-02,7.479999999999999982e-01
2.689796225987302614e-01,6.895414351277887599e-01,1.438699825139147792e-01,7.540000000000000036e-01
2.736385054362668323e-01,7.014846921182249506e-01,-3.946131100717964468e-02,7.540000000000000036e-01
2.790304553830300072e-01,7.153071998179062474e-01,1.772614308229656377e-01,7.880000000000000338e-01
2.725188645355773320e-01,6.986144420002784461e-01,-1.308930482796263374e-02,7.500000000000000000e-01
2.766122779388495156e-01,7.091080925058202977e-01,2.039494075407863594e-01,7.880000000000000338e-01
2.158119634271858378e-01,5.420361226848400271e-01,-1.563267032419225211e-01,6.039999999999999813e-01
2.803482533261809073e-01,7.041263043124148524e-01,1.322892407946090268e-02,7.580000000000000071e-01
2.573457164630608696e-01,6.463528347827360854e-01,-1.606150528015196088e-01,7.139999999999999680e-01
2.785290842896253061e-01,6.995572557971058147e-01,3.946131100717964468e-02,7.540000000000000036e-01
2.636197818779084656e-01,6.621108587445654337e-01,-1.385273306433715268e-01,7.259999999999999787e-01
2.815349937834053518e-01,7.071069370162371692e-01,6.658698745921083628e-02,7.640000000000000124e-01
2.819724832524693747e-01,7.082057412333950808e-01,9.359565573515325754e-02,7.680000000000000160e-01
2.820538463753034519e-01,7.084100939065748337e-01,1.207674070110582309e-01,7.720000000000000195e-01
2.756389729711874459e-01,6.922984147750594897e-01,-6.519249557524831040e-02,7.479999999999999982e-01
2.781442877664984659e-01,6.985907958654781202e-01,1.461596904584333279e-01,7.660000000000000142e-01
2.726186527927632053e-01,6.847125394937190190e-01,-3.862393570729254211e-02,7.379999999999999893e-01
2.825756886653217892e-01,7.097207597614357821e-01,1.763616266055901827e-01,7.840000000000000302e-01
2.788688430183909883e-01,7.004105982210564463e-01,-1.315911445371176734e-02,7.540000000000000036e-01
2.829852235667734695e-01,7.107493529244921504e-01,2.049846837211964368e-01,7.920000000000000373e-01
2.215288366305549483e-01,5.563946954711933568e-01,-1.604678079635628585e-01,6.199999999999999956e-01
2.788688430183909883e-01,7.004105982210564463e-01,1.315911445371176734e-02,7.540000000000000036e-01
2.515788656739727513e-01,6.318687376447477133e-01,-1.570158359320177888e-01,6.980000000000000648e-01
2.770514764154097809e-01,6.958460767212591991e-01,3.925196718220787251e-02,7.500000000000000000e-01
2.636197818779084656e-01,6.621108587445654337e-01,-1.385273306433715268e-01,7.259999999999999787e-01
2.837460015879870734e-01,7.126601328566788407e-01,6.710992191569678522e-02,7.700000000000000178e-01
2.805038765688627755e-01,7.045171696644710879e-01,9.310817836153267857e-02,7.640000000000000124e-01
2.791310085890308934e-01,7.010690566640196408e-01,1.195159312907363852e-01,7.640000000000000124e-01
2.785869833772963711e-01,6.997026758956482739e-01,-6.588974151722958028e-02,7.560000000000000053e-01
2.868589912996525326e-01,7.204787581380258654e-01,1.507391063474703974e-01,7.900000000000000355e-01
2.785290842896253061e-01,6.995572557971058147e-01,-3.946131100717964468e-02,7.540000000000000036e-01
2.796922632707776746e-01,7.024787111924415406e-01,1.745620181708392449e-01,7.760000000000000231e-01
2.773894327106011248e-01,6.966948921296980402e-01,-1.308930482796263374e-02,7.500000000000000000e-01
2.844144418676157748e-01,7.143389961210805383e-01,2.060199599016065142e-01,7.960000000000000409e-01
1.985042657779069741e-01,4.886123935240233029e-01,-1.413151986259763293e-01,5.460000000000000409e-01
2.882677395840875789e-01,7.095625359080685035e-01,1.336854333095916988e-02,7.660000000000000142e-01
2.647857162670764208e-01,6.517622283290424035e-01,-1.624146612362705189e-01,7.219999999999999751e-01
2.864130491745509044e-01,7.049972701859519297e-01,3.987999865712319597e-02,7.620000000000000107e-01
2.697136086881148920e-01,6.638920901304329325e-01,-1.392905666248777097e-01,7.299999999999999822e-01
2.849648157403188997e-01,7.014324863164036472e-01,6.623836448822020828e-02,7.600000000000000089e-01
2.869097804060155021e-01,7.062199594565977678e-01,9.359565573515325754e-02,7.680000000000000160e-01
2.840185519346669629e-01,6.991032858774466341e-01,1.195159312907363852e-01,7.640000000000000124e-01
2.789655564615753369e-01,6.866654866044793470e-01,-6.484387260425766852e-02,7.439999999999999947e-01
2.881871435297666539e-01,7.093641510982708898e-01,1.488310163937049402e-01,7.800000000000000266e-01
2.849095686014561091e-01,7.012964971141096848e-01,-3.967065483215142380e-02,7.580000000000000071e-01
2.875235478578780368e-01,7.077307299307054045e-01,1.763616266055901827e-01,7.840000000000000302e-01
2.807411667489939089e-01,6.910360989391893805e-01,-1.301949520221350014e-02,7.459999999999999964e-01
2.857588880978660373e-01,7.033870719961213824e-01,2.034317694505813068e-01,7.860000000000000320e-01
2.254077743265609779e-01,5.548345860529201312e-01,-1.604678079635628585e-01,6.199999999999999956e-01
2.837517958830313991e-01,6.984466737267409631e-01,1.315911445371176734e-02,7.540000000000000036e-01
2.618518025134246030e-01,6.445404861868923030e-01,-1.606150528015196088e-01,7.139999999999999680e-01
2.864130491745509044e-01,7.049972701859519297e-01,3.987999865712319597e-02,7.620000000000000107e-01
2.667578431134506323e-01,6.566165603755789171e-01,-1.377640946618653439e-01,7.219999999999999751e-01
2.819651861009471183e-01,6.940489864604414416e-01,6.554111854623893840e-02,7.520000000000000018e-01
2.913927457248595143e-01,7.172546463231070923e-01,9.505808785601503608e-02,7.800000000000000266e-01
2.855055600599793464e-01,7.027635125050772924e-01,1.201416691508973150e-01,7.680000000000000160e-01
2.789655564615753369e-01,6.866654866044793470e-01,-6.484387260425766852e-02,7.439999999999999947e-01
2.881871435297666539e-01,7.093641510982708898e-01,1.488310163937049402e-01,7.800000000000000266e-01
2.879165297476456442e-01,7.086980432577941746e-01,-4.008934248209497508e-02,7.660000000000000142e-01
2.889905047347039457e-01,7.113416010017803437e-01,1.772614308229656377e-01,7.880000000000000338e-01
2.829991385995220265e-01,6.965940300298530952e-01,-1.312420964083720054e-02,7.520000000000000018e-01
2.864860099505323610e-01,7.051768609833888313e-01,2.039494075407863594e-01,7.880000000000000338e-01
2.202148789679609642e-01,5.319083069444139333e-01,-1.542561508811023663e-01,5.959999999999999742e-01
2.868479393694709501e-01,6.928541908501449909e-01,1.308930482796263374e-02,7.500000000000000000e-01
2.661207665758637542e-01,6.427896564278549052e-01,-1.606150528015196088e-01,7.139999999999999680e-01
2.941384182566439964e-01,7.104636562044565062e-01,4.029868630706674726e-02,7.700000000000000178e-01
2.756127202775233709e-01,6.657165769279864698e-01,-1.400538026063838926e-01,7.339999999999999858e-01
2.918969901394885547e-01,7.050496976176381381e-01,6.676129894470615722e-02,7.660000000000000142e-01
2.915872641199295789e-01,7.043015835780586098e-01,9.359565573515325754e-02,7.680000000000000160e-01
2.939382777646477596e-01,7.099802356892412902e-01,1.217060138012996257e-01,7.780000000000000249e-01
2.865620582048242215e-01,6.921636718126159549e-01,-6.554111854623893840e-02,7.520000000000000018e-01
2.883795220342478816e-01,6.965535845786016145e-01,1.465413084491864193e-01,7.680000000000000160e-01
2.910824346903412296e-01,7.030822156205140949e-01,-3.987999865712319597e-02,7.620000000000000107e-01
2.966836557344363356e-01,7.166114376982808398e-01,1.790610392577165477e-01,7.960000000000000409e-01
2.922024342377010364e-01,7.057874690793476402e-01,-1.333363851808460308e-02,7.640000000000000124e-01
2.889396566324588522e-01,6.979065369639794181e-01,2.023964932701712294e-01,7.820000000000000284e-01
2.120861418248483066e-01,5.122741076947879835e-01,-1.485621318888469267e-01,5.740000000000000657e-01
2.883777950461081097e-01,6.965494132013456685e-01,1.315911445371176734e-02,7.540000000000000036e-01
2.623935849711597768e-01,6.337870001753639349e-01,-1.583655422580809435e-01,7.039999999999999591e-01
2.895544429071897907e-01,6.993914953285429448e-01,3.967065483215142380e-02,7.580000000000000071e-01
2.786166736320467852e-01,6.729723434340135757e-01,-1.415802745693962306e-01,7.419999999999999929e-01
2.934212564065354911e-01,7.087314192762158571e-01,6.710992191569678522e-02,7.700000000000000178e-01
2.900685804526382805e-01,7.006333461635895210e-01,9.310817836153267857e-02,7.640000000000000124e-01
2.931826523719365807e-01,7.081550936951815922e-01,1.213931448712191608e-01,7.760000000000000231e-01
2.896105907389181500e-01,6.995271151297715040e-01,-6.623836448822020828e-02,7.600000000000000089e-01
2.891305103728787351e-01,6.983675262051084465e-01,1.469229264399395107e-01,7.700000000000000178e-01
2.895544429071897907e-01,6.993914953285429448e-01,-3.967065483215142380e-02,7.580000000000000071e-01
2.959382194134955735e-01,7.148109064477826680e-01,1.786111371490288202e-01,7.940000000000000391e-01
2.922024342377010364e-01,7.057874690793476402e-01,-1.333363851808460308e-02,7.640000000000000124e-01
2.955904415677328423e-01,7.139708818045825689e-01,2.070552360820165916e-01,8.000000000000000444e-01
2.412055429835987530e-01,5.712916359414795808e-01,-1.661618269558183258e-01,6.420000000000000151e-01
2.963447916550661088e-01,7.018881022932026426e-01,1.329873370521003628e-02,7.620000000000000107e-01
2.728757277064161046e-01,6.463019836186779665e-01,-1.619647591275827914e-01,7.199999999999999734e-01
2.928763003226207973e-01,6.936730336714327372e-01,3.946131100717964468e-02,7.540000000000000036e-01
2.787262772256787202e-01,6.601589205890007195e-01,-1.392905666248777097e-01,7.299999999999999822e-01
3.006868427253002740e-01,7.121721837806010980e-01,6.763285637218273416e-02,7.760000000000000231e-01
2.964970710272120669e-01,7.022487736548858051e-01,9.359565573515325754e-02,7.680000000000000160e-01
2.981193227579212457e-01,7.060910520440218940e-01,1.213931448712191608e-01,7.760000000000000231e-01
2.960370461883110593e-01,7.011592118664681239e-01,-6.658698745921083628e-02,7.640000000000000124e-01
2.970534844953124365e-01,7.035666304359488032e-01,1.484493984029518487e-01,7.780000000000000249e-01
2.959837411748502123e-01,7.010329597581322902e-01,-3.987999865712319597e-02,7.620000000000000107e-01
3.009212886095755657e-01,7.127274652683756040e-01,1.786111371490288202e-01,7.940000000000000391e-01
2.963447916550661088e-01,7.018881022932026426e-01,-1.329873370521003628e-02,7.620000000000000107e-01
3.020704930822638579e-01,7.154493384687689028e-01,2.080905122624266967e-01,8.040000000000000480e-01
2.359456090244548276e-01,5.588335628835656710e-01,-1.625383603243830133e-01,6.280000000000000027e-01
2.979004073592922408e-01,7.055725542737444345e-01,1.336854333095916988e-02,7.660000000000000142e-01
2.743917039714517392e-01,6.498925501943373373e-01,-1.628645633449582464e-01,7.239999999999999769e-01
2.959837411748502123e-01,7.010329597581322902e-01,3.987999865712319597e-02,7.620000000000000107e-01
2.741444754082703605e-01,6.493069931272638096e-01,-1.370008586803591610e-01,7.179999999999999716e-01
3.006868427253002740e-01,7.121721837806010980e-01,6.763285637218273416e-02,7.760000000000000231e-01
3.011298377620122979e-01,7.132214107432434114e-01,9.505808785601503608e-02,7.800000000000000266e-01
2.965826252179319944e-01,7.024514074458568791e-01,1.207674070110582309e-01,7.720000000000000195e-01
2.913872496513219001e-01,6.901462399523350388e-01,-6.554111854623893840e-02,7.520000000000000018e-01
2.993443854040166441e-01,7.089925941668172582e-01,1.495942523752111231e-01,7.840000000000000302e-01
3.021986228793089868e-01,7.157528119315313964e-01,-4.071737395701029855e-02,7.780000000000000249e-01
2.994053123445399311e-01,7.091368986927162332e-01,1.777113329316533652e-01,7.900000000000000355e-01
2.947891759508400877e-01,6.982036503126609617e-01,-1.322892407946090268e-02,7.580000000000000071e-01
2.990648165341816545e-01,7.083304395785323671e-01,2.060199599016065142e-01,7.960000000000000409e-01
2.253285363688755372e-01,5.234584723037175591e-01,-1.527032366104872363e-01,5.899999999999999689e-01
3.012376334836846525e-01,6.998021376467687960e-01,1.329873370521003628e-02,7.620000000000000107e-01
2.796925892986157902e-01,6.497510606878804662e-01,-1.633144654536459739e-01,7.259999999999999787e-01
3.071881152011307070e-01,7.136256422923870080e-01,4.071737395701029855e-02,7.780000000000000249e-01
2.817757426947429256e-01,6.545904135363181942e-01,-1.385273306433715268e-01,7.259999999999999787e-01
3.017125682173908974e-01,7.009054537830917697e-01,6.676129894470615722e-02,7.660000000000000142e-01
3.092411882075671303e-01,7.183951156879708755e-01,9.603304260325622177e-02,7.880000000000000338e-01
3.053845673258274163e-01,7.094358382367330629e-01,1.223317516614605416e-01,7.820000000000000284e-01
2.961982392943576237e-01,6.880951713379699353e-01,-6.554111854623893840e-02,7.520000000000000018e-01
3.027342690108808521e-01,7.032789566919122048e-01,1.488310163937049402e-01,7.800000000000000266e-01
3.071881152011307070e-01,7.136256422923870080e-01,-4.071737395701029855e-02,7.780000000000000249e-01
3.058896913265853335e-01,7.106092867578197581e-01,1.786111371490288202e-01,7.940000000000000391e-01
2.996563335703845143e-01,6.961286356118776553e-01,-1.322892407946090268e-02,7.580000000000000071e-01
3.032387421642155911e-01,7.044508932358505282e-01,2.055023218114014893e-01,7.940000000000000391e-01
2.344944429330331759e-01,5.447516982957332221e-01,-1.589148936929477285e-01,6.139999999999999902e-01
2.996563335703845143e-01,6.961286356118776553e-01,1.322892407946090268e-02,7.580000000000000071e-01
2.766105772953252329e-01,6.425912693855346802e-01,-1.615148570188950639e-01,7.179999999999999716e-01
3.079778018725988775e-01,7.154601555116475442e-01,4.082204586949618463e-02,7.800000000000000266e-01
2.864331929872180327e-01,6.654100897931168879e-01,-1.408170385878900754e-01,7.379999999999999893e-01
3.025003294921099206e-01,7.027354941323948889e-01,6.693561043020147816e-02,7.680000000000000160e-01
3.045319315343554822e-01,7.074550885455145322e-01,9.457061048239444323e-02,7.760000000000000231e-01
3.053845673258274163e-01,7.094358382367330629e-01,1.223317516614605416e-01,7.820000000000000284e-01
2.993492843932337721e-01,6.954153327351825231e-01,-6.623836448822020828e-02,7.600000000000000089e-01
2.988530604338182628e-01,6.942625598112466268e-01,1.469229264399395107e-01,7.700000000000000178e-01
3.040293685152579140e-01,7.062875894153444190e-01,-4.029868630706674726e-02,7.700000000000000178e-01
3.105127093315211417e-01,7.213489737113384370e-01,1.813105498011552130e-01,8.060000000000000497e-01
3.012376334836846525e-01,6.998021376467687960e-01,-1.329873370521003628e-02,7.620000000000000107e-01
3.070578698992812994e-01,7.133230707325237674e-01,2.080905122624266967e-01,8.040000000000000480e-01
2.422690846938723719e-01,5.519043797738681922e-01,-1.615030841439729359e-01,6.239999999999999991e-01
3.062375572437756044e-01,6.976286277205109299e-01,1.329873370521003628e-02,7.620000000000000107e-01
2.874680767865230302e-01,6.548705577689645230e-01,-1.651140738883969117e-01,7.339999999999999858e-01
3.122868046917147700e-01,7.114091980523472580e-01,4.071737395701029855e-02,7.780000000000000249e-01
2.975003993744479991e-01,6.777248265361760504e-01,-1.438699825139147792e-01,7.540000000000000036e-01
3.131270668192862594e-01,7.133233686075824975e-01,6.815579082866868310e-02,7.820000000000000284e-01
3.095865338513912324e-01,7.052578093795690561e-01,9.457061048239444323e-02,7.760000000000000231e-01
3.104533216394220752e-01,7.072324070759826720e-01,1.223317516614605416e-01,7.820000000000000284e-01
3.091228843791419267e-01,7.042015864003243752e-01,-6.728423340119210616e-02,7.720000000000000195e-01
3.117046624745542505e-01,7.100830410657548164e-01,1.507391063474703974e-01,7.900000000000000355e-01
3.074700416373438161e-01,7.004363055374009939e-01,-4.008934248209497508e-02,7.660000000000000142e-01
3.125334131820782235e-01,7.119709878741604658e-01,1.795109413664042752e-01,7.980000000000000426e-01
3.110601959405279726e-01,7.086149053224087835e-01,-1.350816258245743882e-02,7.740000000000000213e-01
3.144839080160843903e-01,7.164143391295405561e-01,2.096434265330417990e-01,8.100000000000000533e-01
2.329510429748772871e-01,5.306772882441040950e-01,-1.552914270615124437e-01,5.999999999999999778e-01
3.102564228244025779e-01,7.067838590554258449e-01,1.347325776958287202e-02,7.720000000000000195e-01
2.819850344499953421e-01,6.423798386834529417e-01,-1.619647591275827914e-01,7.199999999999999734e-01
3.106812170069244705e-01,7.077515672140318737e-01,4.050803013203852637e-02,7.740000000000000213e-01
2.880308906410437575e-01,6.561526835164568361e-01,-1.392905666248777097e-01,7.299999999999999822e-01
3.107245573551996598e-01,7.078502992832277352e-01,6.763285637218273416e-02,7.760000000000000231e-01
3.127781476024364959e-01,7.125285084453378825e-01,9.554556522963562892e-02,7.840000000000000302e-01
3.112473199044845651e-01,7.090411856107038391e-01,1.226446205915410065e-01,7.840000000000000302e-01
3.131270668192862594e-01,7.133233686075824975e-01,-6.815579082866868310e-02,7.820000000000000284e-01
3.093372852912031901e-01,7.046900053108249296e-01,1.495942523752111231e-01,7.840000000000000302e-01
3.106812170069244705e-01,7.077515672140318737e-01,-4.050803013203852637e-02,7.740000000000000213e-01
3.109668296573560031e-01,7.084022109925857125e-01,1.786111371490288202e-01,7.940000000000000391e-01
3.046300110115248150e-01,6.939665351865450527e-01,-1.322892407946090268e-02,7.580000000000000071e-01
3.137074045395014665e-01,7.146454148353935665e-01,2.091257884428367742e-01,8.080000000000000515e-01
2.240288204107586112e-01,5.008227007241579098e-01,-1.470092176182317967e-01,5.680000000000000604e-01
3.184492503460911172e-01,7.119022155698221388e-01,1.361287702108113923e-02,7.800000000000000266e-01
2.856670535833571445e-01,6.386166968214730399e-01,-1.615148570188950639e-01,7.179999999999999716e-01
3.156146438418303002e-01,7.055653733619702273e-01,4.050803013203852637e-02,7.740000000000000213e-01
2.926046442102487322e-01,6.541258749169873710e-01,-1.392905666248777097e-01,7.299999999999999822e-01
3.180993322464144013e-01,7.111199638604615014e-01,6.815579082866868310e-02,7.820000000000000284e-01
3.177448724067867269e-01,7.103275589642740195e-01,9.554556522963562892e-02,7.840000000000000302e-01
3.145765231662601691e-01,7.032446255248689937e-01,1.220188827313800767e-01,7.800000000000000266e-01
3.091502461729858653e-01,6.911140313733385998e-01,-6.623836448822020828e-02,7.600000000000000089e-01
3.174559975541328960e-01,7.096817711428137221e-01,1.511207243382234888e-01,7.920000000000000373e-01
3.156146438418303002e-01,7.055653733619702273e-01,-4.050803013203852637e-02,7.740000000000000213e-01
3.174962517542047613e-01,7.097717605341721248e-01,1.795109413664042752e-01,7.980000000000000426e-01
3.111004214919505517e-01,6.954737029028261741e-01,-1.329873370521003628e-02,7.620000000000000107e-01
3.155335498743079281e-01,7.053840855269830623e-01,2.070552360820165916e-01,8.000000000000000444e-01
2.271841559095016949e-01,5.078765415794278537e-01,-1.490797699790519515e-01,5.760000000000000675e-01
3.127334945706484737e-01,6.991244834954920551e-01,1.336854333095916988e-02,7.660000000000000142e-01
2.888499734004418840e-01,6.457322031927429373e-01,-1.633144654536459739e-01,7.259999999999999787e-01
3.164301855571838296e-01,7.073885397014068044e-01,4.061270204452441246e-02,7.760000000000000231e-01
3.022245229240103637e-01,6.756313831334362918e-01,-1.438699825139147792e-01,7.540000000000000036e-01
3.164722256876091877e-01,7.074825215900755193e-01,6.780716785767805510e-02,7.780000000000000249e-01
3.209871670231824736e-01,7.175757993618686603e-01,9.652051997687680074e-02,7.920000000000000373e-01
3.153831296359172476e-01,7.050478168723686156e-01,1.223317516614605416e-01,7.820000000000000284e-01
3.107773527317910234e-01,6.947514736437244709e-01,-6.658698745921083628e-02,7.640000000000000124e-01
3.174559975541328960e-01,7.096817711428137221e-01,1.511207243382234888e-01,7.920000000000000373e-01
3.172457272725374700e-01,7.092117060408434925e-01,-4.071737395701029855e-02,7.780000000000000249e-01
3.190877116627471310e-01,7.133295137198070179e-01,1.804107455837797303e-01,8.020000000000000462e-01
3.111004214919505517e-01,6.954737029028261741e-01,-1.329873370521003628e-02,7.620000000000000107e-01
3.186888853730510118e-01,7.124379263822528952e-01,2.091257884428367742e-01,8.080000000000000515e-01
2.483490061029168805e-01,5.449521573267349650e-01,-1.604678079635628585e-01,6.199999999999999956e-01
3.159481231444792315e-01,6.932848816780291523e-01,1.329873370521003628e-02,7.620000000000000107e-01
2.860777946527748861e-01,6.277404278988709674e-01,-1.592653464754564263e-01,7.079999999999999627e-01
3.255021871040171821e-01,7.142493616559768554e-01,4.113606160695384983e-02,7.860000000000000320e-01
3.077480647962674287e-01,6.752914958490103814e-01,-1.442516005046678707e-01,7.560000000000000053e-01
3.222298635415228318e-01,7.070689029425105687e-01,6.798147934317337604e-02,7.800000000000000266e-01
3.226961107743269719e-01,7.080919891201090666e-01,9.554556522963562892e-02,7.840000000000000302e-01
3.211167416650035356e-01,7.046263799081102785e-01,1.226446205915410065e-01,7.840000000000000302e-01
3.214036331221856169e-01,7.052559057554784738e-01,-6.780716785767805510e-02,7.780000000000000249e-01
3.215885862289038499e-01,7.056617483078284625e-01,1.507391063474703974e-01,7.900000000000000355e-01
3.205326880642611620e-01,7.033447912490152776e-01,-4.050803013203852637e-02,7.740000000000000213e-01
3.272923921874967279e-01,7.181776081893863628e-01,1.822103540185306680e-01,8.100000000000000533e-01
3.209236841388805050e-01,7.042027538304390655e-01,-1.350816258245743882e-02,7.740000000000000213e-01
3.220525821076535289e-01,7.066798943398305832e-01,2.080905122624266967e-01,8.040000000000000480e-01
2.331276154062864869e-01,5.115518638131608675e-01,-1.506326842496670537e-01,5.819999999999999618e-01
3.217529443046140969e-01,7.060223991891741990e-01,1.354306739533200563e-02,7.760000000000000231e-01
2.949672176504599674e-01,6.472464863929036083e-01,-1.642142696710214567e-01,7.299999999999999822e-01
3.221891877441798169e-01,7.069796480513358405e-01,4.071737395701029855e-02,7.780000000000000249e-01
3.012348782397326619e-01,6.609996123389784151e-01,-1.411986565786431669e-01,7.399999999999999911e-01
3.255347852188718027e-01,7.143208916906388373e-01,6.867872528515463204e-02,7.880000000000000338e-01
3.210497020458865647e-01,7.044792748899044721e-01,9.505808785601503608e-02,7.800000000000000266e-01
3.260317938333454069e-01,7.154114775597649745e-01,1.245218341720237820e-01,7.960000000000000409e-01
3.197511722835111314e-01,7.016299113814141730e-01,-6.745854488668742710e-02,7.740000000000000213e-01
3.207744379093370179e-01,7.038752628690744251e-01,1.503574883567173059e-01,7.880000000000000338e-01
3.188761883843425071e-01,6.997099344466948256e-01,-4.029868630706674726e-02,7.700000000000000178e-01
3.272923921874967279e-01,7.181776081893863628e-01,1.822103540185306680e-01,8.100000000000000533e-01
3.209236841388805050e-01,7.042027538304390655e-01,-1.350816258245743882e-02,7.740000000000000213e-01
3.260582112383457742e-01,7.154694452644553282e-01,2.106787027134519041e-01,8.140000000000000568e-01
2.503322431229121903e-01,5.397879545360985132e-01,-1.594325317831527811e-01,6.159999999999999920e-01
3.272696616268971348e-01,7.056870462530324684e-01,1.357797220820657243e-02,7.780000000000000249e-01
2.951540384914493331e-01,6.364365721444141810e-01,-1.619647591275827914e-01,7.199999999999999734e-01
3.251903636017007826e-01,7.012034846714721992e-01,4.050803013203852637e-02,7.740000000000000213e-01
3.072640938907263974e-01,6.625493171577883089e-01,-1.419618925601493220e-01,7.439999999999999947e-01
3.294269100525374916e-01,7.103386912052604973e-01,6.850441379965932498e-02,7.860000000000000320e-01
3.273852231087269193e-01,7.059362298784490619e-01,9.554556522963562892e-02,7.840000000000000302e-01
2.138025946832502466e-01,4.610195786961300279e-01,-6.239710382343550965e-02,5.120000000000000107e-01
3.241207464386889336e-01,6.988970839723205319e-01,1.220188827313800767e-01,7.800000000000000266e-01
3.302651464648849178e-01,7.121461687910245475e-01,-6.867872528515463204e-02,7.880000000000000338e-01
3.312174775542507388e-01,7.141996671512718109e-01,1.530288142919889460e-01,8.020000000000000462e-01
3.268709339562315686e-01,7.048272752899293891e-01,-4.071737395701029855e-02,7.780000000000000249e-01
3.304085486445947351e-01,7.124553849283303819e-01,1.813105498011552130e-01,8.060000000000000497e-01
3.222218005221120785e-01,6.948024131488724775e-01,-1.336854333095916988e-02,7.660000000000000142e-01
3.316089454355460320e-01,7.150437839309357058e-01,2.111963408036569290e-01,8.160000000000000586e-01
2.462684080072804760e-01,5.310251630663566091e-01,-1.568443413321275737e-01,6.059999999999999831e-01
3.323175227316821911e-01,7.165716793571923482e-01,1.378740108545397497e-02,7.900000000000000355e-01
3.000732724663068285e-01,6.470438483468210489e-01,-1.646641717797091842e-01,7.319999999999999840e-01
3.277112191334968783e-01,7.066391705991579286e-01,4.082204586949618463e-02,7.800000000000000266e-01
3.056121363966902149e-01,6.589872240547893778e-01,-1.411986565786431669e-01,7.399999999999999911e-01
3.294269100525374916e-01,7.103386912052604973e-01,6.850441379965932498e-02,7.860000000000000320e-01
3.290555558796898206e-01,7.095379453370126432e-01,9.603304260325622177e-02,7.880000000000000338e-01
2.246597576945090213e-01,4.844307291767928625e-01,-6.556570675196934928e-02,5.380000000000000338e-01
3.257829041127335290e-01,7.024811715824350600e-01,1.226446205915410065e-01,7.840000000000000302e-01
3.260739644031478424e-01,7.031087808622044077e-01,-6.780716785767805510e-02,7.780000000000000249e-01
3.353473712893411673e-01,7.231048999087689166e-01,1.549369042457544032e-01,8.120000000000000551e-01
3.285515043107622990e-01,7.084510659083866901e-01,-4.092671778198207766e-02,7.820000000000000284e-01
3.336880379611664171e-01,7.195269023966016642e-01,1.831101582359061231e-01,8.140000000000000568e-01
3.247457310745046066e-01,7.002447297009525284e-01,-1.347325776958287202e-02,7.720000000000000195e-01
3.316089454355460320e-01,7.150437839309357058e-01,2.111963408036569290e-01,8.160000000000000586e-01
2.359449327105475058e-01,4.995966538960395775e-01,-1.480444937986418741e-01,5.720000000000000639e-01
3.321882712548896999e-01,7.033850944620599899e-01,1.357797220820657243e-02,7.780000000000000249e-01
3.095763076746478326e-01,6.555058659788328690e-01,-1.673635844318355492e-01,7.439999999999999947e-01
3.369010350934144582e-01,7.133640375030518843e-01,4.134540543192562895e-02,7.900000000000000355e-01
3.152356055971258231e-01,6.674890277826905916e-01,-1.434883645231616878e-01,7.520000000000000018e-01
3.309746036276277059e-01,7.008152393752974385e-01,6.780716785767805510e-02,7.780000000000000249e-01
3.373918792741195105e-01,7.144033652285827207e-01,9.700799735049739358e-02,7.960000000000000409e-01
2.517723320211394111e-01,5.331100489268568721e-01,-7.239038998265759361e-02,5.939999999999999725e-01
3.332098768518569898e-01,7.055482718271465226e-01,1.235832273817823873e-01,7.900000000000000355e-01
3.309746036276277059e-01,7.008152393752974385e-01,-6.780716785767805510e-02,7.780000000000000249e-01
3.345186346629074881e-01,7.083194736310999273e-01,1.522655783104827631e-01,7.980000000000000426e-01
3.369010350934144582e-01,7.133640375030518843e-01,-4.134540543192562895e-02,7.900000000000000355e-01
3.420318883179577218e-01,7.242282551540331070e-01,1.849097666706570608e-01,8.220000000000000639e-01
3.313343168300699748e-01,7.015769065585585329e-01,-1.354306739533200563e-02,7.760000000000000231e-01
3.357677888573176173e-01,7.109644690059024885e-01,2.106787027134519041e-01,8.140000000000000568e-01
2.557445074834605592e-01,5.415208486285743028e-01,-1.604678079635628585e-01,6.199999999999999956e-01
3.330422256797094804e-01,7.051932823655614468e-01,1.361287702108113923e-02,7.800000000000000266e-01
3.004221695444835305e-01,6.361226280063404515e-01,-1.624146612362705189e-01,7.219999999999999751e-01
3.386068631192039047e-01,7.169760073131938860e-01,4.155474925689740112e-02,7.940000000000000391e-01
3.135588204609709440e-01,6.639385542306550647e-01,-1.427251285416555049e-01,7.479999999999999982e-01
3.352287759107591691e-01,7.098231473364194910e-01,6.867872528515463204e-02,7.880000000000000338e-01
3.323055695363186790e-01,7.036334652502623799e-01,9.554556522963562892e-02,7.840000000000000302e-01
2.619449514967410186e-01,5.546498488834976648e-01,-7.531525422438113682e-02,6.179999999999999938e-01
3.357405847773141105e-01,7.109068662967197305e-01,1.245218341720237820e-01,7.960000000000000409e-01
3.318254380842540208e-01,7.026168209675218712e-01,-6.798147934317337604e-02,7.800000000000000266e-01
3.361954197990624227e-01,7.118699471831355652e-01,1.530288142919889460e-01,8.020000000000000462e-01
3.369010350934144582e-01,7.133640375030518843e-01,-4.134540543192562895e-02,7.900000000000000355e-01
3.420318883179577218e-01,7.242282551540331070e-01,1.849097666706570608e-01,8.220000000000000639e-01
3.330422256797094804e-01,7.051932823655614468e-01,-1.361287702108113923e-02,7.800000000000000266e-01
3.349428065751128836e-01,7.092176275587135370e-01,2.101610646232468516e-01,8.120000000000000551e-01
2.579380461407013714e-01,5.361951437325139791e-01,-1.594325317831527811e-01,6.159999999999999920e-01
3.406805277563404455e-01,7.081981401360822881e-01,1.371759145970484137e-02,7.860000000000000320e-01
2.965186133158265736e-01,6.163954595496845545e-01,-1.579156401493932438e-01,7.020000000000000684e-01
3.376680147438215207e-01,7.019358036102696374e-01,4.082204586949618463e-02,7.800000000000000266e-01
3.165996478865610309e-01,6.581394107777213121e-01,-1.419618925601493220e-01,7.439999999999999947e-01
3.428906508563269728e-01,7.127924886278801386e-01,6.920165974164058098e-02,7.940000000000000391e-01
3.373321140359070158e-01,7.012375416397892414e-01,9.554556522963562892e-02,7.840000000000000302e-01
2.676282843499160347e-01,5.563389679846287850e-01,-7.580273159800172966e-02,6.219999999999999973e-01
3.442444057223353893e-01,7.156066403042947721e-01,1.257733098923456139e-01,8.040000000000000480e-01
3.428906508563269728e-01,7.127924886278801386e-01,-6.920165974164058098e-02,7.940000000000000391e-01
3.395786545880049578e-01,7.059075938180398024e-01,1.522655783104827631e-01,7.980000000000000426e-01
3.368021993214014853e-01,7.001359682163972309e-01,-4.071737395701029855e-02,7.780000000000000249e-01
3.421368615182613926e-01,7.112255302496359732e-01,1.822103540185306680e-01,8.100000000000000533e-01
3.415473993282395204e-01,7.100001710270137378e-01,-1.375249627257940817e-02,7.880000000000000338e-01
3.450340097726265487e-01,7.172480494084279012e-01,2.132668931644771115e-01,8.240000000000000657e-01
2.571005849519328867e-01,5.344542504087070878e-01,-1.589148936929477285e-01,6.139999999999999902e-01
3.424142709001386509e-01,7.118022019179452986e-01,1.378740108545397497e-02,7.900000000000000355e-01
2.990529604381840234e-01,6.216637968107928680e-01,-1.592653464754564263e-01,7.079999999999999627e-01
3.385338301662416116e-01,7.037356390041421550e-01,4.092671778198207766e-02,7.820000000000000284e-01
3.148974992420096042e-01,6.546010268488088313e-01,-1.411986565786431669e-01,7.399999999999999911e-01
3.437543552665444646e-01,7.145879357025095580e-01,6.937597122713590192e-02,7.960000000000000409e-01
2.200766474394034722e-01,4.574898173089645970e-01,-8.040731503067867492e-02,5.140000000000000124e-01
3.407742784648448708e-01,7.083930267585626384e-01,9.652051997687680074e-02,7.920000000000000373e-01
2.813969420656673437e-01,5.849609084597221509e-01,-7.970255058696645856e-02,6.540000000000000258e-01
3.408190882524613774e-01,7.084861762216648762e-01,1.245218341720237820e-01,7.960000000000000409e-01
3.420269464461095921e-01,7.109970415532508303e-01,-6.902734825614527392e-02,7.920000000000000373e-01
3.438340261993834690e-01,7.147535536403210044e-01,1.541736682642482203e-01,8.080000000000000515e-01
3.385338301662416116e-01,7.037356390041421550e-01,-4.092671778198207766e-02,7.820000000000000284e-01
3.455159910147380664e-01,7.182499799311138355e-01,1.840099624532815781e-01,8.180000000000000604e-01
3.363461698968450708e-01,6.991879856814248173e-01,-1.354306739533200563e-02,7.760000000000000231e-01
3.467089321501635735e-01,7.207298360560416839e-01,2.143021693448871889e-01,8.280000000000000693e-01
2.547874744646977940e-01,5.205457862062663477e-01,-1.552914270615124437e-01,5.999999999999999778e-01
3.498887372840551180e-01,7.148432559995480107e-01,1.389211552407767537e-02,7.960000000000000409e-01
3.152715577731218244e-01,6.441183235332976764e-01,-1.655639759970846392e-01,7.359999999999999876e-01
3.450722199479492325e-01,7.050028279770679251e-01,4.113606160695384983e-02,7.860000000000000320e-01
3.193458977488138339e-01,6.524424395848192892e-01,-1.411986565786431669e-01,7.399999999999999911e-01
3.503622111124144456e-01,7.158105908606875456e-01,6.972459419812652992e-02,8.000000000000000444e-01
2.266592646952822476e-01,4.630782003300072946e-01,-8.165879075100052065e-02,5.220000000000000195e-01
3.490790153634655280e-01,7.131889465220224711e-01,9.749547472411798643e-02,8.000000000000000444e-01
3.002079532125804251e-01,6.133424940089393651e-01,-8.384610826274147000e-02,6.880000000000000560e-01
3.404231101936806558e-01,6.955044234841488704e-01,1.226446205915410065e-01,7.840000000000000302e-01
3.477344945290713474e-01,7.104420114292323563e-01,-6.920165974164058098e-02,7.940000000000000391e-01
3.495542934818098302e-01,7.141599676536536379e-01,1.545552862550013118e-01,8.100000000000000533e-01
3.485844053927120711e-01,7.121784292796334848e-01,-4.155474925689740112e-02,7.940000000000000391e-01
3.486834891675559267e-01,7.123808632555765907e-01,1.831101582359061231e-01,8.140000000000000568e-01
3.375810932589878299e-01,6.896980158387597815e-01,-1.340344814383373669e-02,7.680000000000000160e-01
3.490588400166359517e-01,7.131477271025850051e-01,2.127492550742720590e-01,8.220000000000000639e-01
2.437466839045608902e-01,4.979888021373282125e-01,-1.485621318888469267e-01,5.740000000000000657e-01
3.446140327018834548e-01,7.040667245020674203e-01,1.368268664683027283e-02,7.840000000000000302e-01
3.084178282563148077e-01,6.301157512825737994e-01,-1.619647591275827914e-01,7.199999999999999734e-01
3.477063590315213060e-01,7.103845289539919561e-01,4.145007734441151503e-02,7.920000000000000373e-01
3.141673156231574171e-01,6.418622919158762929e-01,-1.389089486341246182e-01,7.279999999999999805e-01
3.451067779457282492e-01,7.050734319977772779e-01,6.867872528515463204e-02,7.880000000000000338e-01
2.188434279816518224e-01,4.471099865255242500e-01,-7.884297038027636428e-02,5.040000000000000036e-01
3.525698055171002654e-01,7.203208359872428357e-01,9.847042947135917212e-02,8.080000000000000515e-01
3.080622310582583623e-01,6.293892453056848524e-01,-8.603975644403411005e-02,7.059999999999999609e-01
3.473705206057965400e-01,7.096983913103559471e-01,1.251475720321847118e-01,8.000000000000000444e-01
3.442308724179471979e-01,7.032839055206254741e-01,-6.850441379965932498e-02,7.860000000000000320e-01
3.461019053980388116e-01,7.071065358743582330e-01,1.530288142919889460e-01,8.020000000000000462e-01
3.503404981150934905e-01,7.157662299309162091e-01,-4.176409308186917330e-02,7.980000000000000426e-01
3.503969215467577225e-01,7.158815063182575322e-01,1.840099624532815781e-01,8.180000000000000604e-01
3.410975629804356424e-01,6.968823701704136564e-01,-1.354306739533200563e-02,7.760000000000000231e-01
3.465109652719889910e-01,7.079422692405222817e-01,2.111963408036569290e-01,8.160000000000000586e-01
2.816727109035604415e-01,5.654422558800958898e-01,-1.692676554970485581e-01,6.540000000000000258e-01
3.486292728030717658e-01,6.998538191621261895e-01,1.364778183395570603e-02,7.820000000000000284e-01
3.075958258354634101e-01,6.174814631554959021e-01,-1.592653464754564263e-01,7.079999999999999627e-01
3.571100082258054642e-01,7.168784224812410066e-01,4.197343690684095241e-02,8.020000000000000462e-01
3.291453047068601534e-01,6.607408399939392885e-01,-1.434883645231616878e-01,7.520000000000000018e-01
3.553509330913094955e-01,7.133471772671721167e-01,6.972459419812652992e-02,8.000000000000000444e-01
2.351713602932116731e-01,4.720933883016906751e-01,-8.353600433148328230e-02,5.340000000000000302e-01
3.522792189002419416e-01,7.071808823639685881e-01,9.700799735049739358e-02,7.960000000000000409e-01
3.159891486115235515e-01,6.343305904621527880e-01,-8.701471119127529574e-02,7.139999999999999680e-01
3.558398110803652203e-01,7.143285725613596204e-01,1.263990477525065437e-01,8.080000000000000515e-01
3.455787824312984702e-01,6.937301298923248538e-01,-6.780716785767805510e-02,7.780000000000000249e-01
3.536561252701369562e-01,7.099449450998709388e-01,1.541736682642482203e-01,8.080000000000000515e-01
3.535478136300368446e-01,7.097275155238220723e-01,-4.155474925689740112e-02,7.940000000000000391e-01
3.588617968080406451e-01,7.203950403480786635e-01,1.858095708880325159e-01,8.260000000000000675e-01
3.513041777094891849e-01,7.052235415597896129e-01,-1.375249627257940817e-02,7.880000000000000338e-01
3.574745413607877120e-01,7.176102024166354232e-01,2.148198074350922415e-01,8.300000000000000711e-01
2.661677910373093647e-01,5.343169940885308389e-01,-1.599501698733578059e-01,6.179999999999999938e-01
3.521958126782950282e-01,7.070134490256775317e-01,1.378740108545397497e-02,7.900000000000000355e-01
3.180228029824282432e-01,6.384130381777161078e-01,-1.646641717797091842e-01,7.319999999999999840e-01
3.562194595768632954e-01,7.150906957418862175e-01,4.186876499435506632e-02,8.000000000000000444e-01
3.273945318094832468e-01,6.572262610578013531e-01,-1.427251285416555049e-01,7.479999999999999982e-01
3.589044424222225804e-01,7.204806490398438790e-01,7.042184014010779980e-02,8.080000000000000515e-01
2.633566918639336230e-01,5.286738692966497233e-01,-9.354781009405806202e-02,5.979999999999999760e-01
3.522792189002419416e-01,7.071808823639685881e-01,9.700799735049739358e-02,7.960000000000000409e-01
3.292660035952010289e-01,6.609831362798902488e-01,-9.067079149342972821e-02,7.439999999999999947e-01
3.558398110803652203e-01,7.143285725613596204e-01,1.263990477525065437e-01,8.080000000000000515e-01
3.562393104240377806e-01,7.151305452103401405e-01,-6.989890568362185086e-02,8.020000000000000462e-01
3.475284201293177833e-01,6.976439188233880540e-01,1.515023423289765803e-01,7.940000000000000391e-01
3.499856190342682249e-01,7.025766085664032490e-01,-4.113606160695384983e-02,7.860000000000000320e-01
3.553861377590523674e-01,7.134178486740052616e-01,1.840099624532815781e-01,8.180000000000000604e-01
3.513041777094891849e-01,7.052235415597896129e-01,-1.375249627257940817e-02,7.880000000000000338e-01
3.600586946718294934e-01,7.227977460485628391e-01,2.163727217057073160e-01,8.359999999999999654e-01
2.603733395176806020e-01,5.134459698778024439e-01,-1.542561508811023663e-01,5.959999999999999742e-01
3.617681360795394485e-01,7.133925149338521399e-01,1.396192514982681071e-02,8.000000000000000444e-01
3.225830095578064993e-01,6.361209888666859991e-01,-1.646641717797091842e-01,7.319999999999999840e-01
3.586174220018471526e-01,7.071794308737673340e-01,4.155474925689740112e-02,7.940000000000000391e-01
3.267614889198672268e-01,6.443607855856660072e-01,-1.404354205971369840e-01,7.359999999999999876e-01
3.649519767934826797e-01,7.196709234158236157e-01,7.059615162560312074e-02,8.100000000000000533e-01
2.787475071990753728e-01,5.496791048191410622e-01,-9.761510618510406412e-02,6.239999999999999991e-01
3.591262679222726462e-01,7.081828549862942968e-01,9.749547472411798643e-02,8.000000000000000444e-01
3.366808761771305503e-01,6.639214265496509171e-01,-9.140200755386060361e-02,7.500000000000000000e-01
3.573685989731735790e-01,7.047168010501808633e-01,1.251475720321847118e-01,8.000000000000000444e-01
3.622486288172346303e-01,7.143400276868173693e-01,-7.007321716911717180e-02,8.040000000000000480e-01
3.631669808919176790e-01,7.161509818058081622e-01,1.560817582180136498e-01,8.180000000000000604e-01
3.586174220018471526e-01,7.071794308737673340e-01,-4.155474925689740112e-02,7.940000000000000391e-01
3.604821063091335209e-01,7.108565148810781498e-01,1.840099624532815781e-01,8.180000000000000604e-01
3.545327733579486384e-01,6.991246646351751970e-01,-1.368268664683027283e-02,7.840000000000000302e-01
3.634741920783729485e-01,7.167567901649859463e-01,2.153374455252972663e-01,8.320000000000000728e-01
2.612470755563305325e-01,5.151689429310836177e-01,-1.547737889713073911e-01,5.979999999999999760e-01
3.626725564197383345e-01,7.151759962211868826e-01,1.399682996270137751e-02,8.020000000000000462e-01
3.172947634994818245e-01,6.256927759344452777e-01,-1.619647591275827914e-01,7.199999999999999734e-01
3.604240588885063157e-01,7.107420476539878518e-01,4.176409308186917330e-02,7.980000000000000426e-01
3.178821006340012412e-01,6.268509816295337878e-01,-1.366192406896060696e-01,7.159999999999999698e-01
3.586441648489039347e-01,7.072321667148092628e-01,6.937597122713590192e-02,7.960000000000000409e-01
2.867883006759717746e-01,5.655352328427701858e-01,-1.004309265558282205e-01,6.420000000000000151e-01
3.645131619411067780e-01,7.188055978110888811e-01,9.895790684497975109e-02,8.120000000000000551e-01
3.420677701959646821e-01,6.745441693744452794e-01,-9.286443967472238215e-02,7.620000000000000107e-01
3.573685989731735790e-01,7.047168010501808633e-01,1.251475720321847118e-01,8.000000000000000444e-01
3.613475128251519841e-01,7.125630624438153982e-01,-6.989890568362185086e-02,8.020000000000000462e-01
3.649428585490909205e-01,7.196529425970347171e-01,1.568449941995198327e-01,8.220000000000000639e-01
3.604240588885063157e-01,7.107420476539878518e-01,-4.176409308186917330e-02,7.980000000000000426e-01
3.657703523674582513e-01,7.212847278133188711e-01,1.867093751054079709e-01,8.300000000000000711e-01
3.527239326775509221e-01,6.955577020605058225e-01,-1.361287702108113923e-02,7.800000000000000266e-01
3.617267200010730877e-01,7.133108440584234877e-01,2.143021693448871889e-01,8.280000000000000693e-01
2.629767529465452114e-01,5.099447980855720264e-01,-1.537385127908973137e-01,5.939999999999999725e-01
3.647825485199318596e-01,7.073589622119517140e-01,1.389211552407767537e-02,7.960000000000000409e-01
3.322645469606826385e-01,6.443024921875905031e-01,-1.673635844318355492e-01,7.439999999999999947e-01
3.716614964147029188e-01,7.206981021014507993e-01,4.249679646927038978e-02,8.120000000000000551e-01
3.257408897397972014e-01,6.316523053288299883e-01,-1.381457126526184354e-01,7.239999999999999769e-01
3.643629863983849915e-01,7.065453788097714183e-01,6.955028271263122286e-02,7.980000000000000426e-01
3.069281746343654471e-01,5.951720990049240712e-01,-1.060625672972765332e-01,6.780000000000000471e-01
3.712171261198658478e-01,7.198364125500478217e-01,9.944538421860034394e-02,8.160000000000000586e-01
3.566595917622240042e-01,6.916075336265163909e-01,-9.554556522963562892e-02,7.840000000000000302e-01
3.639679239026988866e-01,7.057793032447773340e-01,1.257733098923456139e-01,8.040000000000000480e-01
3.625366055141825417e-01,7.030037979636071244e-01,-6.920165974164058098e-02,7.940000000000000391e-01
3.662335417792747516e-01,7.101726195271652609e-01,1.553185222365074947e-01,8.140000000000000568e-01
3.670843843898913272e-01,7.118225097110388866e-01,-4.197343690684095241e-02,8.020000000000000462e-01
3.706714703996862870e-01,7.187783178974465059e-01,1.867093751054079709e-01,8.300000000000000711e-01
3.592833141201338676e-01,6.966952592640328623e-01,-1.368268664683027283e-02,7.840000000000000302e-01
3.665736556224569731e-01,7.108321427859488617e-01,2.143021693448871889e-01,8.280000000000000693e-01
2.877691740997548875e-01,5.580204019454912956e-01,-1.682323793166384807e-01,6.500000000000000222e-01
3.629494703866658623e-01,7.038043945626454301e-01,1.382230589832854177e-02,7.920000000000000373e-01
3.251190728324959145e-01,6.304465246136637946e-01,-1.637643675623337292e-01,7.279999999999999805e-01
3.698306516047782933e-01,7.171478651452859454e-01,4.228745264429861761e-02,8.080000000000000515e-01
3.329395834357042894e-01,6.456114722974228837e-01,-1.411986565786431669e-01,7.399999999999999911e-01
3.671025577246886384e-01,7.118577500790177481e-01,7.007321716911717180e-02,8.040000000000000480e-01
3.105497460164818313e-01,6.021947786392004565e-01,-1.073140430175983789e-01,6.860000000000000542e-01
3.657580507357501287e-01,7.092505829537234519e-01,9.798295209773857928e-02,8.040000000000000480e-01
3.593891294542818637e-01,6.969004484246785758e-01,-9.627678129006650432e-02,7.900000000000000355e-01
3.694002809758734629e-01,7.163133226961918565e-01,1.276505234728284033e-01,8.160000000000000586e-01
3.661893672825874413e-01,7.100869596559357122e-01,-6.989890568362185086e-02,8.020000000000000462e-01
3.662335417792747516e-01,7.101726195271652609e-01,1.553185222365074947e-01,8.140000000000000568e-01
3.652535395799667017e-01,7.082722727548740327e-01,-4.176409308186917330e-02,7.980000000000000426e-01
