2.675020539964984012e-02,5.392318467174422869e-01,1.049449474570996466e-01,5.500000000000000444e-01
1.699114132689348022e-01,3.425081930644823025e+00,-1.797216737382691110e-01,3.434000000000000163e+00
1.874575051035701212e-01,3.778776841069252601e+00,-6.603990595868081126e-02,3.784000000000000252e+00
2.335292492225765071e-01,4.707493136575172876e+00,8.227064394535447966e-02,4.714000000000000412e+00
1.744113392057169420e-01,3.515791640597723422e+00,-6.842410574202896223e-01,3.585999999999999854e+00
2.855883652153854979e-01,5.756903144307202957e+00,5.042831275379502376e-01,5.786000000000000476e+00
1.760755044005657133e-01,3.549337957639197683e+00,-5.628512052147506273e-01,3.597999999999999865e+00
2.858210238309508155e-01,5.761593087171254624e+00,7.083046238707171316e-01,5.812000000000000277e+00
1.908096304996712012e-01,3.846349135964292287e+00,-4.728530524119721745e-01,3.879999999999999893e+00
5.976192495107583991e-01,1.204683578062531524e+01,1.910377687071299402e+00,1.221199999999999974e+01
1.917084705317243509e-01,3.864467993862629402e+00,-3.385129048319043266e-01,3.883999999999999897e+00
1.706041214185460841e-01,3.439045572761604497e+00,-1.804543771256703066e-01,3.447999999999999954e+00
2.462135579477878200e-02,4.963184003843033043e-01,1.147250377153711531e-01,5.100000000000000089e-01
1.890427694173423823e-01,3.810732670592036797e+00,-6.659838296467388008e-02,3.816000000000000281e+00
2.709502512311782185e-01,4.771585339003098447e+00,8.342250277021519278e-02,4.780000000000000249e+00
3.273484623392319270e-01,5.764789353564369279e+00,3.026064989967012231e-01,5.782000000000000028e+00
2.171509097355318330e-01,3.824148870639684894e+00,-7.445366999592778479e-01,3.902000000000000135e+00
3.267762367044648175e-01,5.754712140359917072e+00,5.042831275379502376e-01,5.786000000000000476e+00
2.305866081108578769e-01,4.060759027285283373e+00,-6.441971270356707802e-01,4.118000000000000327e+00
3.274926112691632363e-01,5.767327896775042539e+00,7.092795786179583173e-01,5.820000000000000284e+00
2.188911095939939655e-01,3.854794762621119197e+00,-4.740717458460236844e-01,3.890000000000000124e+00
6.849284580893669760e-01,1.206197290474832151e+01,1.913506376372104079e+00,1.223200000000000109e+01
2.193568792533946155e-01,3.862997226608695822e+00,-3.385129048319043266e-01,3.883999999999999897e+00
3.060814975769926213e-02,5.390266219507501289e-01,1.049449474570996466e-01,5.500000000000000444e-01
1.960014487406470107e-01,3.451695043590426337e+00,-1.811870805130715301e-01,3.462000000000000188e+00
2.158532545373068323e-01,3.801296437431757713e+00,-6.645876371317561981e-02,3.808000000000000274e+00
3.232721757103103055e-01,5.693003668082418756e+00,2.988383101472092407e-01,5.709999999999999964e+00
2.170396073727765551e-01,3.822188773832591036e+00,-7.441550819685247564e-01,3.899999999999999911e+00
3.270021449220275045e-01,5.758690510315228828e+00,5.046317505089408240e-01,5.790000000000000036e+00
2.302506392792247336e-01,4.054842428411142841e+00,-6.432585202454293993e-01,4.112000000000000099e+00
3.285054750153564851e-01,5.785164993363006047e+00,7.114732267992509573e-01,5.838000000000000078e+00
2.196788925076998689e-01,3.868668059967313333e+00,-4.757779166536957316e-01,3.903999999999999915e+00
6.848164684788226042e-01,1.206000070512360800e+01,1.913193507442023655e+00,1.223000000000000043e+01
2.193568792533946155e-01,3.862997226608695822e+00,-3.385129048319043266e-01,3.883999999999999897e+00
2.023423390523028387e-01,3.563361665451237670e+00,-1.870487076122812620e-01,3.574000000000000288e+00
2.163067277611246952e-01,3.809282354317118369e+00,-6.659838296467388008e-02,3.816000000000000281e+00
3.076123955741966176e-01,4.835487337533818319e+00,8.457436159507590590e-02,4.846000000000000085e+00
2.433004754975120476e-01,3.824541486009163993e+00,-7.449183179500309393e-01,3.903999999999999915e+00
3.664454124630314724e-01,5.760308028403071212e+00,5.049803734799314103e-01,5.794000000000000483e+00
2.565914165508892952e-01,4.033467322848571790e+00,-6.401298309446248336e-01,4.092000000000000526e+00
3.686320981545064823e-01,5.794681451335383926e+00,7.129356589201127914e-01,5.850000000000000533e+00
2.460067882384945892e-01,3.867083142908263049e+00,-4.757779166536957316e-01,3.903999999999999915e+00
7.688963709059148943e-01,1.208660222697193909e+01,1.918199410323311094e+00,1.226200000000000045e+01
2.464051306447998524e-01,3.873344853064957238e+00,-3.395587737448761967e-01,3.895999999999999908e+00
2.453589720953227304e-01,3.856899851199519613e+00,-2.025401506601926249e-01,3.870000000000000107e+00
2.424843894125940924e-01,3.811713089017578771e+00,-6.666819259042301715e-02,3.820000000000000284e+00
3.008837711559413375e-01,4.729717288466837921e+00,8.272440651272384982e-02,4.740000000000000213e+00
2.140358904740025103e-01,3.364519288089541593e+00,-7.783306480297729202e-01,3.459999999999999964e+00
2.430511922234367128e-01,3.820622898421039526e+00,-7.441550819685247564e-01,3.899999999999999911e+00
3.659394471023645345e-01,5.752354548211972229e+00,5.042831275379502376e-01,5.786000000000000476e+00
2.562151828022808941e-01,4.027553147888382590e+00,-6.391912241543833417e-01,4.086000000000000298e+00
3.673718174770552181e-01,5.774870574578682358e+00,7.104982720520097716e-01,5.830000000000000071e+00
2.462588443739848199e-01,3.871045318259603185e+00,-4.762653940273163244e-01,3.907999999999999918e+00
7.696488384031315855e-01,1.209843057689231749e+01,1.920076623903793855e+00,1.227400000000000091e+01
2.461521479644664112e-01,3.869368112969408191e+00,-3.392101507738855548e-01,3.891999999999999904e+00
2.463733761143214740e-01,3.872845690377605177e+00,-2.033775259600797136e-01,3.886000000000000121e+00
2.440078515450292140e-01,3.835661024655385276e+00,-6.708705034491781183e-02,3.843999999999999861e+00
3.351637851915040267e-01,4.745454017935319513e+00,8.303854982859494582e-02,4.758000000000000007e+00
2.318901903422640187e-01,3.283243250313360839e+00,-7.598846615735760368e-01,3.378000000000000114e+00
3.263126796023214093e-01,4.620134647415150120e+00,2.427341650547734653e-01,4.637999999999999901e+00
2.697180321915588763e-01,3.818832988897410630e+00,-7.441550819685247564e-01,3.899999999999999911e+00
4.058084746703328749e-01,5.745684771808543090e+00,5.039345045669595402e-01,5.782000000000000028e+00
2.848830198748281695e-01,4.033548166709330474e+00,-6.404426998747052568e-01,4.094000000000000306e+00
4.073990285826441515e-01,5.768204807645969545e+00,7.100107946783892343e-01,5.826000000000000512e+00
2.729979072410989582e-01,3.865271467396131921e+00,-4.757779166536957316e-01,3.903999999999999915e+00
8.527006657416081881e-01,1.207305794696046064e+01,1.916947934602988957e+00,1.225399999999999956e+01
2.742821720878002023e-01,3.883454875169108700e+00,-3.406046426578481223e-01,3.907999999999999918e+00
2.734047160273007648e-01,3.871031315190874178e+00,-2.033775259600797136e-01,3.886000000000000121e+00
2.716249591631860749e-01,3.845832428154390747e+00,-6.729647922216522304e-02,3.855999999999999872e+00
2.566912217818076436e-01,3.634391433660425275e+00,6.359656905746112476e-02,3.644000000000000128e+00
2.314783072333079228e-01,3.277411557151169941e+00,-7.585349552475127988e-01,3.371999999999999886e+00
3.313783356892914256e-01,4.691857306883431278e+00,2.465023539042654199e-01,4.709999999999999964e+00
2.683348627957047317e-01,3.799249229979988041e+00,-7.403389020609938420e-01,3.879999999999999893e+00
2.839088229333900926e-01,4.019754890125565971e+00,-6.382526173641419609e-01,4.080000000000000071e+00
2.738370401527007170e-01,3.877152424775423434e+00,-4.772403487745575101e-01,3.915999999999999925e+00
2.740014329147318350e-01,3.879479998121852624e+00,-3.402560196868574804e-01,3.903999999999999915e+00
2.736861413654657627e-01,3.875015907383556168e+00,-2.035868697850514997e-01,3.890000000000000124e+00
2.707796532736740924e-01,3.833864069975486899e+00,-6.708705034491781183e-02,3.843999999999999861e+00
3.665819947757474884e-01,4.721067872708427871e+00,8.265459688697471274e-02,4.735999999999999766e+00
2.539005438146657023e-01,3.269887003042518003e+00,-7.571852489214496718e-01,3.366000000000000103e+00
3.635068654626366080e-01,4.681464470437040504e+00,2.460836662543218756e-01,4.701999999999999957e+00
2.966756974848287487e-01,3.820771679923361752e+00,-7.449183179500309393e-01,3.903999999999999915e+00
3.607696790858054281e-01,4.646213304669397637e+00,4.077145645735448798e-01,4.677999999999999936e+00
3.130353271527522852e-01,4.031461029469536328e+00,-6.404426998747052568e-01,4.094000000000000306e+00
3.008977772294254005e-01,3.875146213649224958e+00,-4.772403487745575101e-01,3.915999999999999925e+00
3.004614514147708193e-01,3.869526942067544439e+00,-3.395587737448761967e-01,3.895999999999999908e+00
3.010412024907501150e-01,3.876993332173933382e+00,-2.037962136100232580e-01,3.894000000000000128e+00
2.986219036834531493e-01,3.845836117590607728e+00,-6.733138403503978464e-02,3.858000000000000096e+00
3.654983486763259681e-01,4.707112013287415131e+00,8.241026319685275381e-02,4.722000000000000419e+00
3.659807531050875973e-01,4.713324713536569455e+00,2.477584168540960807e-01,4.733999999999999986e+00
2.995634219992815428e-01,3.857961568201304647e+00,-7.521690597743396767e-01,3.942000000000000171e+00
3.125765553005498965e-01,4.025552684042858154e+00,-6.395040930844637650e-01,4.088000000000000078e+00
3.013588054887146317e-01,3.881083618470955621e+00,-4.779715648349884272e-01,3.922000000000000153e+00
3.007699333977428835e-01,3.873499762336607866e+00,-3.399073967158668386e-01,3.899999999999999911e+00
3.013504384460564678e-01,3.880975862561374612e+00,-2.040055574349950440e-01,3.898000000000000131e+00
2.990863234403480786e-01,3.851817200199612934e+00,-6.743609847366348331e-02,3.863999999999999879e+00
3.976761307106504439e-01,4.696475405685397675e+00,8.227064394535447966e-02,4.714000000000000412e+00
3.354344751135031610e-01,3.961413926891658832e+00,-7.727764312750063924e-01,4.049999999999999822e+00
3.420057248131410099e-01,4.039019068904623921e+00,-6.420070445251074842e-01,4.104000000000000092e+00
3.284463165659020634e-01,3.878885174936669955e+00,-4.779715648349884272e-01,3.922000000000000153e+00
3.284769334673897090e-01,3.879246754407326581e+00,-3.406046426578481223e-01,3.907999999999999918e+00
3.281001659543658078e-01,3.874797205586240079e+00,-2.037962136100232580e-01,3.894000000000000128e+00
3.269819012801190028e-01,3.861590723894060329e+00,-6.764552735091089453e-02,3.875999999999999890e+00
3.973386880880703242e-01,4.692490275939376509e+00,8.220083431960534259e-02,4.709999999999999964e+00
4.856623925426206134e-01,5.735575524653079071e+00,3.016644517843282136e-01,5.764000000000000234e+00
3.435057499219704713e-01,4.056734064820871843e+00,-6.448228648958316267e-01,4.121999999999999886e+00
3.281113381706282639e-01,3.874929147221283454e+00,-4.774840874613678343e-01,3.918000000000000149e+00
3.284769334673897090e-01,3.879246754407326581e+00,-3.406046426578481223e-01,3.907999999999999918e+00
3.277631344536422464e-01,3.870816931106952463e+00,-2.035868697850514997e-01,3.890000000000000124e+00
3.271506225914090904e-01,3.863583288767070911e+00,-6.768043216378545612e-02,3.878000000000000114e+00
3.197813018058073831e-01,3.486833587809738955e+00,6.111832734336686279e-02,3.502000000000000224e+00
5.258745082987690278e-01,5.734034129433202231e+00,3.017691236968141344e-01,5.766000000000000014e+00
3.710968680388545549e-01,4.046368616619901992e+00,-6.435713891755098226e-01,4.113999999999999879e+00
3.556991137786454926e-01,3.878474476380454394e+00,-4.782153035217986958e-01,3.923999999999999932e+00
3.562788023616407229e-01,3.884795288792698198e+00,-3.413018885998293506e-01,3.915999999999999925e+00
3.555079488984740910e-01,3.876390051427440753e+00,-2.040055574349950440e-01,3.898000000000000131e+00
3.544805864106636561e-01,3.865187889171160407e+00,-6.775024178953459320e-02,3.882000000000000117e+00
5.266986147389768336e-01,5.743020026980745207e+00,1.006654803302512863e-01,5.767999999999999794e+00
5.260569136086193920e-01,5.736023041722287275e+00,3.018737956092999997e-01,5.767999999999999794e+00
3.649630355092867151e-01,3.979486490725358649e+00,-6.329338455527740992e-01,4.046000000000000263e+00
3.555178196329886742e-01,3.876497680011249169e+00,-4.779715648349884272e-01,3.922000000000000153e+00
3.559148812152039265e-01,3.880827162859304291e+00,-3.409532656288387642e-01,3.911999999999999922e+00
3.566023807575766091e-01,3.888323525161953231e+00,-2.046335889099103744e-01,3.910000000000000142e+00
3.553937254792125522e-01,3.875144581312250924e+00,-6.792476585390742894e-02,3.891999999999999904e+00
3.443125272683368876e-01,3.486506154556870296e+00,6.115323215624142439e-02,3.504000000000000004e+00
5.668739078187274849e-01,5.740161080248469716e+00,3.022924832592435163e-01,5.775999999999999801e+00
3.882708577968656538e-01,3.931627890753004007e+00,-6.257378601609234758e-01,4.000000000000000000e+00
3.827670855207631062e-01,3.875896732592277516e+00,-4.782153035217986958e-01,3.923999999999999932e+00
3.826076576179583411e-01,3.874282366804466360e+00,-3.406046426578481223e-01,3.907999999999999918e+00
3.837390892609460757e-01,3.885739235417506432e+00,-2.046335889099103744e-01,3.910000000000000142e+00
3.822419323840840488e-01,3.870579035738078488e+00,-6.788986104103286734e-02,3.890000000000000124e+00
3.543353234388192941e-01,3.587996915905272477e+00,6.293337761284434340e-02,3.605999999999999872e+00
5.719773432769293953e-01,5.791838430693920792e+00,3.050139529838766239e-01,5.828000000000000291e+00
3.831572660360747506e-01,3.879847697661178874e+00,-4.787027808954192887e-01,3.927999999999999936e+00
3.833908872139009105e-01,3.882213344013892176e+00,-3.413018885998293506e-01,3.915999999999999925e+00
3.821688014276531931e-01,3.869838512203521930e+00,-2.037962136100232580e-01,3.894000000000000128e+00
3.836176102898364859e-01,3.884509140236878100e+00,-6.813419473115482627e-02,3.903999999999999915e+00
3.810587364602213145e-01,3.601344527330192946e+00,6.321261611584087781e-02,3.621999999999999886e+00
4.089808942902123379e-01,3.865233793395570938e+00,-4.772403487745575101e-01,3.915999999999999925e+00
4.117421542234612208e-01,3.891330159644819986e+00,-3.423477575128012762e-01,3.927999999999999936e+00
4.100164665353956961e-01,3.875020873656452203e+00,-2.042149012599668301e-01,3.902000000000000135e+00
3.772712945738138091e-01,3.565549827445078090e+00,6.258432948409867191e-02,3.585999999999999854e+00
4.093986480126742822e-01,3.869181938230500162e+00,-4.777278261481781030e-01,3.919999999999999929e+00
4.113228648607082372e-01,3.887367501641108447e+00,-3.419991345418106343e-01,3.923999999999999932e+00
4.108570948624800101e-01,3.882965560224686641e+00,-2.046335889099103744e-01,3.910000000000000142e+00
2.891080639957726017e-01,2.732328757897120930e+00,-4.795921288965509371e-02,2.748000000000000220e+00
2.417945071676790014e-01,2.145504800408173818e+00,-3.419657405779446546e-01,2.185999999999999943e+00
4.355033375112666305e-01,3.864333032909784471e+00,-4.774840874613678343e-01,3.918000000000000149e+00
4.364348458379553319e-01,3.872598545679041937e+00,-3.409532656288387642e-01,3.911999999999999922e+00
4.386199102944943751e-01,3.891987184137461142e+00,-2.052616203848257048e-01,3.922000000000000153e+00
3.009812630166264769e-01,2.670684095347416243e+00,-4.691206850341807927e-02,2.688000000000000167e+00
3.527124175976091291e-01,3.129707924235253458e+00,5.497508027744305720e-02,3.149999999999999911e+00
2.429006119580160716e-01,2.155319552468595745e+00,-3.435300852283469930e-01,2.196000000000000174e+00
4.363925735245617332e-01,3.872223452578819280e+00,-4.784590422086090200e-01,3.926000000000000156e+00
4.368810982365626816e-01,3.876558257893437887e+00,-3.413018885998293506e-01,3.915999999999999925e+00
4.390672533952537093e-01,3.895956574432349218e+00,-2.054709642097974631e-01,3.926000000000000156e+00
2.978460415268699424e-01,2.642864469354214041e+00,-4.642340112317414058e-02,2.660000000000000142e+00
4.209214650432306914e-01,3.514301646211936081e+00,-4.345860785827559414e-01,3.566000000000000281e+00
4.653553699272134359e-01,3.885283309181695177e+00,-3.423477575128012762e-01,3.927999999999999936e+00
4.643550664068858969e-01,3.876931707754484702e+00,-2.046335889099103744e-01,3.910000000000000142e+00
3.139111929238250775e-01,2.620865680830150257e+00,-4.607435299442847604e-02,2.640000000000000124e+00
2.551225062443432945e-01,2.130034978349530483e+00,-3.397756580673814697e-01,2.172000000000000153e+00
4.152556685423683391e-01,3.466997529829946689e+00,-4.287363500993088272e-01,3.518000000000000238e+00
4.665400831907755563e-01,3.895174559968817452e+00,-3.432193149402778531e-01,3.938000000000000167e+00
4.650676317261803194e-01,3.882880963572010735e+00,-2.049476046473680257e-01,3.915999999999999925e+00
2.709810435643917881e-01,2.136040675654210741e+00,-3.410271337877033293e-01,2.180000000000000160e+00
4.484434124313166348e-01,3.534909147454257994e+00,-4.375109428244794429e-01,3.589999999999999858e+00
4.934711938893127092e-01,3.889846051761709944e+00,-3.430450034547825600e-01,3.935999999999999943e+00
4.944259448428121595e-01,3.897371991011810977e+00,-2.058896518597410352e-01,3.934000000000000163e+00
2.692407983304920815e-01,2.122322983241752503e+00,-3.388370512771400334e-01,2.165999999999999925e+00
4.501922168251991652e-01,3.548694308474970693e+00,-4.392171136321514902e-01,3.604000000000000092e+00
4.934711938893127092e-01,3.889846051761709944e+00,-3.430450034547825600e-01,3.935999999999999943e+00
4.951800261008337256e-01,3.903316127246195588e+00,-2.062036675971986865e-01,3.939999999999999947e+00
4.741648905406162795e-01,3.539562370436396765e+00,-4.384858975717206286e-01,3.597999999999999865e+00
5.192924949410235858e-01,3.876432462655802436e+00,-3.421734460273059830e-01,3.926000000000000156e+00
5.250698929687387384e-01,3.919559782003759096e+00,-2.072503867220575613e-01,3.959999999999999964e+00
4.725834623342551333e-01,3.527757270812929224e+00,-4.370234654508588501e-01,3.585999999999999854e+00
5.229960583282748932e-01,3.904078949908568852e+00,-3.446138068242404207e-01,3.954000000000000181e+00
5.277217611150454291e-01,3.939355538478525265e+00,-2.082971058469164360e-01,3.979999999999999982e+00
4.908222217088941686e-01,3.479162615971964634e+00,-4.314174756542220601e-01,3.540000000000000036e+00
5.527435849506947552e-01,3.918088325918053449e+00,-3.461826101936982258e-01,3.971999999999999975e+00
4.750160823657264553e-01,3.367121785966088243e+00,-4.175243705060352473e-01,3.426000000000000156e+00
5.552484652450332403e-01,3.935844013195627600e+00,-3.477514135631560865e-01,3.990000000000000213e+00
4.953100787292411544e-01,3.342123428006161134e+00,-4.148432449511220144e-01,3.403999999999999915e+00
5.903063285018402828e-01,3.983114204435086680e+00,-3.522835121860342644e-01,4.041999999999999815e+00
4.958921117242226506e-01,3.346050717580786760e+00,-4.153307223247426072e-01,3.407999999999999918e+00
5.149736245186351535e-01,3.315045310954872093e+00,-4.119183807093984573e-01,3.379999999999999893e+00
5.143641882766012419e-01,3.311122180409363569e+00,-4.114309033357778644e-01,3.375999999999999890e+00
3.697519734716559481e-01,2.181473740879759760e+00,-4.300834755787319996e-01,2.254000000000000004e+00
3.935121592965337145e-01,2.227171970178276172e+00,-4.396239253475592856e-01,2.304000000000000270e+00
2.995747948811284811e-01,1.695511994658288168e+00,-3.346789778904595836e-01,1.754000000000000004e+00
3.110492260026041511e-01,1.691448389448305667e+00,-3.342973598997064921e-01,1.752000000000000002e+00
3.074984357514328748e-01,1.672139617879261131e+00,-3.304811799921755777e-01,1.731999999999999984e+00
3.199016848146655212e-01,1.673808844802474161e+00,-3.312444159736817606e-01,1.735999999999999988e+00
3.173218325177730170e-01,1.660310386376647518e+00,-3.285730900384101760e-01,1.721999999999999975e+00
3.450701689160451391e-01,1.739544585022737344e+00,-4.751917668082281110e-01,1.836000000000000076e+00
3.368005134518261556e-01,1.697856152701930910e+00,-4.638037288237171762e-01,1.792000000000000037e+00
4.560939998423301667e+00,5.692983715596035665e+00,1.954601428614236802e+00,7.552000000000000490e+00
4.611766055306023127e+00,5.676800929084502734e+00,1.959777809516286995e+00,7.572000000000000064e+00
4.603239282356434536e+00,5.666304994984241006e+00,1.956154342884851793e+00,7.557999999999999829e+00
4.649812351671521071e+00,5.640673433407036086e+00,1.958742533335877001e+00,7.568000000000000504e+00
4.639981881583420176e+00,5.628748119594336075e+00,1.954601428614236802e+00,7.552000000000000490e+00
4.682882120864912068e+00,5.600664177478996031e+00,1.956154342884851793e+00,7.557999999999999829e+00
4.692795605111252044e+00,5.612520571609674214e+00,1.960295447606491992e+00,7.573999999999999844e+00
4.724919818119000858e+00,5.575378370297964459e+00,1.958224895245671782e+00,7.565999999999999837e+00
4.716176905423566268e+00,5.565061783305607968e+00,1.954601428614236802e+00,7.552000000000000490e+00
4.766921922451238913e+00,5.542058017862564689e+00,1.958742533335877001e+00,7.568000000000000504e+00
4.761882892934905520e+00,5.536199605581526129e+00,1.956671980975057012e+00,7.560000000000000497e+00
5.603646718900455959e+00,6.428109032059468042e+00,1.968771627617506681e+00,8.752000000000000668e+00
4.807381463012088574e+00,5.514689585750137013e+00,1.960295447606491992e+00,7.573999999999999844e+00
5.606207800581853640e+00,6.431046924670097198e+00,1.969671431834882025e+00,8.756000000000000227e+00
4.797225917275596885e+00,5.503039858608335777e+00,1.956154342884851793e+00,7.557999999999999829e+00
5.653549523284556066e+00,6.394671750091043272e+00,1.970571236052257369e+00,8.759999999999999787e+00
4.838086322954578300e+00,5.472309706756647962e+00,1.957189619065262010e+00,7.562000000000000277e+00
5.657421817478587300e+00,6.399051662248640859e+00,1.971920942378320607e+00,8.766000000000000014e+00
4.840645479962224051e+00,5.475204342941125901e+00,1.958224895245671782e+00,7.565999999999999837e+00
5.695452766854193882e+00,6.352145167669457138e+00,1.969671431834882025e+00,8.756000000000000227e+00
4.880040994974779167e+00,5.442715459719213555e+00,1.958742533335877001e+00,7.568000000000000504e+00
6.854516557477654537e+00,7.644850376196023589e+00,1.995862091638658908e+00,1.046000000000000085e+01
5.699355543990001216e+00,6.356497939597965718e+00,1.971021138160945263e+00,8.762000000000000455e+00
4.886489252103444869e+00,5.449907208476770570e+00,1.961330723786902208e+00,7.578000000000000291e+00
8.631485705244022810e+00,9.492533400142242783e+00,2.032083700872599152e+00,1.299000000000000021e+01
6.926211237397384757e+00,7.617146543785701773e+00,2.001204743509201744e+00,1.048799999999999955e+01
5.748837114564453898e+00,6.322321577712401108e+00,1.972820746595695951e+00,8.769999999999999574e+00
4.915319762186420860e+00,5.405655365516789601e+00,1.957707257155466785e+00,7.564000000000000057e+00
8.655406681794353574e+00,9.518840652059495255e+00,2.037715341614047215e+00,1.302599999999999980e+01
6.914324147173019242e+00,7.604073637818107301e+00,1.997770181592424255e+00,1.047000000000000064e+01
5.759325300862405683e+00,6.333856029849619595e+00,1.976419963465197771e+00,8.785999999999999588e+00
4.915319762186420860e+00,5.405655365516789601e+00,1.957707257155466785e+00,7.564000000000000057e+00
8.717631918068114771e+00,9.453826435552990404e+00,2.036776734823805945e+00,1.301999999999999957e+01
6.964579874938295667e+00,7.552731057358407440e+00,1.997006945610918072e+00,1.046600000000000108e+01
5.800761133871361608e+00,6.290629091607046419e+00,1.975520159247822427e+00,8.782000000000000028e+00
4.964724740427540972e+00,5.383990335611588129e+00,1.962365999967312202e+00,7.581999999999999851e+00
8.744414197386296550e+00,9.482870449179880978e+00,2.043034113425415299e+00,1.306000000000000050e+01
6.971234355995947318e+00,7.559947502091217686e+00,1.998915035564683640e+00,1.047600000000000087e+01
5.798119019941109897e+00,6.287763854034007949e+00,1.974620355030447083e+00,8.778000000000000469e+00
4.959486307570323937e+00,5.378309522806933529e+00,1.960295447606491992e+00,7.573999999999999844e+00
8.791514415827634821e+00,9.401392894404027700e+00,2.038653948404288485e+00,1.303200000000000003e+01
7.025183373037535262e+00,7.512529232307785243e+00,1.999296653555436398e+00,1.047799999999999976e+01
5.844536292540793987e+00,6.249979170011607188e+00,1.975520159247822427e+00,8.782000000000000028e+00
5.000871300454021728e+00,5.347788069968313351e+00,1.961848361877107205e+00,7.580000000000000071e+00
8.780720659638772574e+00,9.389850361691438607e+00,2.036150996963645099e+00,1.301600000000000001e+01
7.021160553774486779e+00,7.508227344982546292e+00,1.998151799583177013e+00,1.047199999999999953e+01
5.848529371310464242e+00,6.254249253707811818e+00,1.976869865573885665e+00,8.788000000000000256e+00
4.986356898262730653e+00,5.332266785332521408e+00,1.956154342884851793e+00,7.557999999999999829e+00
8.846059669204048959e+00,9.328321041133047942e+00,2.036150996963645099e+00,1.301600000000000001e+01
7.085564603990991195e+00,7.471848919787348997e+00,2.001586361499954947e+00,1.049000000000000021e+01
5.930936378377375640e+00,6.254273731008780146e+00,1.989917026725829929e+00,8.846000000000000085e+00
8.893633745482803832e+00,9.378488717291567411e+00,2.047101409516461246e+00,1.308600000000000030e+01
8.529834414354953154e-01,8.870004356105328780e-01,3.297354634606114443e-01,1.274000000000000021e+00
8.334249293724773633e-01,8.666619297532621724e-01,2.775896010603294273e-01,1.233999999999999986e+00
8.181677907646586201e-01,8.507963361978578831e-01,3.162768731152803547e-01,1.221999999999999975e+00
8.565193558333811241e-01,8.786278959053556159e-01,2.385112442206810124e-01,1.250000000000000000e+00
8.257017628258028763e-01,8.470148369397817456e-01,2.730905799734520967e-01,1.213999999999999968e+00
8.198944474622076317e-01,8.410576227285395667e-01,3.147239588446651970e-01,1.215999999999999970e+00
8.332220293547131229e-01,8.547292171367300018e-01,2.320237383778784857e-01,1.215999999999999970e+00
8.393047572710384818e-01,8.609689528695968486e-01,2.775896010603294273e-01,1.233999999999999986e+00
8.320310429016153364e-01,8.535074888544554872e-01,3.193827016565106147e-01,1.233999999999999986e+00
8.475996913364002294e-01,8.571207453556123346e-01,2.343134463223970065e-01,1.227999999999999980e+00
8.550359298208367598e-01,8.646405148146749653e-01,2.807389158211435198e-01,1.247999999999999998e+00
8.462675086861826124e-01,8.557735983500441845e-01,3.224885301977408192e-01,1.245999999999999996e+00
8.600237910465429181e-01,8.696844044894894710e-01,2.377480082391748295e-01,1.245999999999999996e+00
8.550359298208367598e-01,8.646405148146749653e-01,2.807389158211435198e-01,1.247999999999999998e+00
8.625680064457881269e-01,8.722571989603179476e-01,3.287001872802013391e-01,1.270000000000000018e+00
8.474956781176231635e-01,8.454273813925617942e-01,1.895985716287598155e-01,1.211999999999999966e+00
8.756530543094096508e-01,8.735160400552003379e-01,2.404193341744464418e-01,1.260000000000000009e+00
8.443456998132177205e-01,8.422850905489650541e-01,2.753400905168907342e-01,1.223999999999999977e+00
8.698529380079541573e-01,8.677300788248101249e-01,3.292178253704063917e-01,1.272000000000000020e+00
8.728732033433479476e-01,8.707429732613741757e-01,2.396560981929402867e-01,1.256000000000000005e+00
8.526235988309943670e-01,8.505427875151313488e-01,2.780395031690171548e-01,1.235999999999999988e+00
8.493375385266344058e-01,8.472647467770551000e-01,3.214532540173307695e-01,1.241999999999999993e+00
8.621359590430663911e-01,8.481064447119133209e-01,2.350766823039031894e-01,1.231999999999999984e+00
8.654868036088566585e-01,8.514027610778714950e-01,2.802890137124557923e-01,1.245999999999999996e+00
8.579861862878912504e-01,8.440242010926350957e-01,3.224885301977408192e-01,1.245999999999999996e+00
8.663346731293151137e-01,8.522368332413545744e-01,2.362215362761624637e-01,1.237999999999999989e+00
8.682652524165898056e-01,8.541359962659224037e-01,2.811888179298312473e-01,1.250000000000000000e+00
8.607405560673067058e-01,8.467337490897222096e-01,3.235238063781509243e-01,1.250000000000000000e+00
8.777977094019073778e-01,8.512395156764630544e-01,1.936658677198058176e-01,1.237999999999999989e+00
8.653639812573472589e-01,8.391819759831324888e-01,2.343134463223970065e-01,1.227999999999999980e+00
8.631632945834986081e-01,8.370478721476611872e-01,2.775896010603294273e-01,1.233999999999999986e+00
8.667775664712722428e-01,8.405527924935660700e-01,3.235238063781509243e-01,1.250000000000000000e+00
8.707072594067385429e-01,8.443635906709988648e-01,1.921015230694035070e-01,1.227999999999999980e+00
8.738203068070933277e-01,8.473824513184725626e-01,2.366031542669155552e-01,1.239999999999999991e+00
8.603653584584305403e-01,8.343345889316233777e-01,2.766897968429539723e-01,1.229999999999999982e+00
8.584565018331480335e-01,8.324834856856277998e-01,3.204179778369206644e-01,1.237999999999999989e+00
4.007820393928815506e+00,3.833973221933408837e+00,6.810058909479641542e-01,5.588000000000000078e+00
8.664425211749867684e-01,8.288588554421063570e-01,1.899114405588402665e-01,1.213999999999999968e+00
8.781493106561556461e-01,8.400578396714406537e-01,2.362215362761624637e-01,1.237999999999999989e+00
8.716571985200807227e-01,8.338473357972636668e-01,2.784894052777048823e-01,1.237999999999999989e+00
8.571232751254441729e-01,8.199438502046761945e-01,3.178297873858954570e-01,1.227999999999999980e+00
3.976262753031738484e+00,3.803784456406374304e+00,6.756436398381376884e-01,5.544000000000000483e+00
8.692973565001103076e-01,8.315898566132500225e-01,1.905371784190011963e-01,1.217999999999999972e+00
8.738933366142033199e-01,8.359864769589780975e-01,2.350766823039031894e-01,1.231999999999999984e+00
8.660245187235050546e-01,8.284589846774106370e-01,2.766897968429539723e-01,1.229999999999999982e+00
8.668950388483727121e-01,8.292917442623841673e-01,3.214532540173307695e-01,1.241999999999999993e+00
3.995501148382191392e+00,3.769121590628832674e+00,6.744249464040861231e-01,5.533999999999999808e+00
8.722078860020413549e-01,8.227897959629274505e-01,1.899114405588402665e-01,1.213999999999999968e+00
8.711396925117960155e-01,8.217821248354436614e-01,2.327869743593846685e-01,1.219999999999999973e+00
8.703695621316190900e-01,8.210556289752937165e-01,2.762398947342662447e-01,1.227999999999999980e+00
8.670423943725142912e-01,8.179169739303405740e-01,3.193827016565106147e-01,1.233999999999999986e+00
8.707709702096162463e-01,8.214342938278978989e-01,1.895985716287598155e-01,1.211999999999999966e+00
8.639992032289123269e-01,8.150462057794154447e-01,2.308788844056192113e-01,1.209999999999999964e+00
8.618643221107888941e-01,8.130322840667404405e-01,2.735404820821398242e-01,1.215999999999999970e+00
8.670423943725142912e-01,8.179169739303405740e-01,3.193827016565106147e-01,1.233999999999999986e+00
4.016051895438411456e+00,3.738482035645108059e+00,6.736937303436553170e-01,5.528000000000000469e+00
8.602951219908324676e-01,8.008357318711262218e-01,1.861570133978747155e-01,1.189999999999999947e+00
8.823187637454946719e-01,8.213372072511648803e-01,2.343134463223970065e-01,1.227999999999999980e+00
8.658111840802882320e-01,8.059705507344872011e-01,2.730905799734520967e-01,1.213999999999999968e+00
8.696198841365998522e-01,8.095160120757248778e-01,3.183474254761005096e-01,1.229999999999999982e+00
4.004428011515289931e+00,3.727661537712705808e+00,6.717438208491729457e-01,5.512000000000000455e+00
8.646327444546516583e-01,8.048735590906443971e-01,1.870956201881161240e-01,1.195999999999999952e+00
8.736967562821836841e-01,8.133111107633684833e-01,2.320237383778784857e-01,1.215999999999999970e+00
8.629584289432856714e-01,8.033149640763833643e-01,2.721907757560766417e-01,1.209999999999999964e+00
8.583077555624651911e-01,7.989857224877479069e-01,3.142063207544601444e-01,1.213999999999999968e+00
4.015730275214462353e+00,3.686190886831217206e+00,6.693064339810699259e-01,5.491999999999999993e+00
8.673202351996170956e-01,7.961460874725687642e-01,1.864698823279551942e-01,1.191999999999999948e+00
8.677829619828923979e-01,7.965708419094217341e-01,2.289707944518537541e-01,1.199999999999999956e+00
8.742880000387160955e-01,8.025420626728947404e-01,2.739903841908275517e-01,1.217999999999999972e+00
8.610184246114080953e-01,7.903614168974136822e-01,3.131710445740500948e-01,1.209999999999999964e+00
3.998181563159629359e+00,3.670082259503477218e+00,6.663815697393463688e-01,5.467999999999999972e+00
8.716859410814944420e-01,8.001535342215918556e-01,1.874084891181965751e-01,1.197999999999999954e+00
8.706755718561686175e-01,7.992260780491197147e-01,2.297340304333599370e-01,1.203999999999999959e+00
8.757236125182542574e-01,8.038598657314709461e-01,2.744402862995152792e-01,1.219999999999999973e+00
8.667111084104915930e-01,7.955869469264873484e-01,3.152415969348702496e-01,1.217999999999999972e+00
4.011932101246744153e+00,3.631423327546670965e+00,6.644316602448639975e-01,5.451999999999999957e+00
8.699281512747452094e-01,7.874204503229121910e-01,1.858441444677942644e-01,1.187999999999999945e+00
8.791450356714903824e-01,7.957631660421637942e-01,2.304972664148661199e-01,1.207999999999999963e+00
8.726455621922157846e-01,7.898801303840892185e-01,2.717408736473889141e-01,1.207999999999999963e+00
8.708119303738768302e-01,7.882204080380459388e-01,3.147239588446651970e-01,1.215999999999999970e+00
4.010460372669617968e+00,3.630091183992911752e+00,6.641879215580537288e-01,5.450000000000000178e+00
8.582119472171727548e-01,7.768154610929738357e-01,1.833411930271505730e-01,1.171999999999999931e+00
8.849671882256061606e-01,8.010331207841648871e-01,2.320237383778784857e-01,1.215999999999999970e+00
8.610873428254314232e-01,7.794181419021807278e-01,2.681416567778870941e-01,1.191999999999999948e+00
8.693796739094461490e-01,7.869239928932464379e-01,3.142063207544601444e-01,1.213999999999999968e+00
4.019414331756618886e+00,3.587464451184311010e+00,6.615067960031404404e-01,5.427999999999999936e+00
8.680354171593490653e-01,7.747512310001557490e-01,1.842797998173919538e-01,1.177999999999999936e+00
8.788202397266081656e-01,7.843770531670045676e-01,2.289707944518537541e-01,1.199999999999999956e+00
8.752309113383343053e-01,7.811734550968021384e-01,2.708410694300134591e-01,1.203999999999999959e+00
8.676458481044926341e-01,7.744035273248871531e-01,3.116181303034349370e-01,1.203999999999999959e+00
4.004604404226197012e+00,3.574246085483558488e+00,6.590694091350376427e-01,5.408000000000000362e+00
8.650879284762952315e-01,7.721204967692553156e-01,1.836540619572310240e-01,1.173999999999999932e+00
8.671026365302533234e-01,7.739186924581110683e-01,2.259178505258290504e-01,1.183999999999999941e+00
8.752309113383343053e-01,7.811734550968021384e-01,2.708410694300134591e-01,1.203999999999999959e+00
8.662045759315615268e-01,7.731171427280020270e-01,3.111004922132299400e-01,1.201999999999999957e+00
4.008596970668975246e+00,3.527841285624253587e+00,6.556570675196934372e-01,5.379999999999999893e+00
8.660085470201328572e-01,7.621471373240198410e-01,1.827154551669896432e-01,1.167999999999999927e+00
8.651154773265158360e-01,7.613611745148037846e-01,2.240097605720635932e-01,1.173999999999999932e+00
8.821260534172710166e-01,7.763316524811142427e-01,2.712909715387011866e-01,1.205999999999999961e+00
8.730310167871219162e-01,7.683273941451234101e-01,3.116181303034349370e-01,1.203999999999999959e+00
3.981773645214685686e+00,3.504234912709296434e+00,6.512697711571081571e-01,5.344000000000000306e+00
8.704572210630444618e-01,7.660622767280814704e-01,1.836540619572310240e-01,1.173999999999999932e+00
8.724844336921590005e-01,7.678463633948275913e-01,2.259178505258290504e-01,1.183999999999999941e+00
8.689599929185058969e-01,7.647446128918439223e-01,2.672418525605116391e-01,1.187999999999999945e+00
8.744812344229808687e-01,7.696036854975238928e-01,3.121357683936399896e-01,1.205999999999999961e+00
4.015136412944761091e+00,3.484157897720618902e+00,6.527322032779698802e-01,5.355999999999999872e+00
8.638483601551485425e-01,7.496094221765544630e-01,1.811511105165873325e-01,1.157999999999999918e+00
8.867205690908913640e-01,7.694569140687013142e-01,2.282075584703475712e-01,1.195999999999999952e+00
8.669184582968256780e-01,7.522735176360800802e-01,2.649923420170729460e-01,1.177999999999999936e+00
8.754554503352051098e-01,7.596815419655654766e-01,3.105828541230248874e-01,1.199999999999999956e+00
4.003141980045747061e+00,3.473749659041841298e+00,6.507822937834875088e-01,5.339999999999999858e+00
8.713081905537249927e-01,7.560827332488909702e-01,1.827154551669896432e-01,1.167999999999999927e+00
8.837549484584802384e-01,7.668834795734881249e-01,2.274443224888413884e-01,1.191999999999999948e+00
8.786932421107044311e-01,7.624911545479452490e-01,2.685915588865748216e-01,1.193999999999999950e+00
8.608645261629516154e-01,7.470201829328060317e-01,3.054064732209744726e-01,1.179999999999999938e+00
4.012212072845960265e+00,3.432812719066683282e+00,6.483449069153846001e-01,5.320000000000000284e+00
8.720624634689277954e-01,7.461288341853044015e-01,1.817768483767482623e-01,1.161999999999999922e+00
8.801366826276947330e-01,7.530370637906967923e-01,2.251546145443228675e-01,1.179999999999999938e+00
8.780720637742048806e-01,7.512705943888793314e-01,2.667919504518238560e-01,1.185999999999999943e+00
8.748660663534976178e-01,7.485275717063091250e-01,3.085123017622047326e-01,1.191999999999999948e+00
3.994111868006053889e+00,3.417326345897961470e+00,6.454200426736610430e-01,5.296000000000000263e+00
8.765653677553422174e-01,7.499814787680169070e-01,1.827154551669896432e-01,1.167999999999999927e+00
8.771531684492956948e-01,7.504843957778468688e-01,2.243913785628166846e-01,1.175999999999999934e+00
8.780720637742048806e-01,7.512705943888793314e-01,2.667919504518238560e-01,1.185999999999999943e+00
8.778018585224691694e-01,7.510394091952564688e-01,3.095475779426147822e-01,1.195999999999999952e+00
4.002698547267014462e+00,3.376559438843000471e+00,6.429826558055580232e-01,5.275999999999999801e+00
8.802699254414241281e-01,7.425699663314135890e-01,1.824025862369091922e-01,1.165999999999999925e+00
8.763685951375734806e-01,7.392789181782856156e-01,2.228649065998043188e-01,1.167999999999999927e+00
8.713791848066665402e-01,7.350699975343396586e-01,2.631927335823220360e-01,1.169999999999999929e+00
8.815470405114312902e-01,7.436473032562903596e-01,3.090299398524097296e-01,1.193999999999999950e+00
3.995111931369995872e+00,3.370159591536626920e+00,6.417639623715065689e-01,5.266000000000000014e+00
8.757402345729432547e-01,7.387488515818522172e-01,1.814639794466677836e-01,1.159999999999999920e+00
8.838717509178608545e-01,7.456083609709078797e-01,2.247729965535697760e-01,1.177999999999999936e+00
8.713791848066665402e-01,7.350699975343396586e-01,2.631927335823220360e-01,1.169999999999999929e+00
8.741638994686219410e-01,7.374191013864721533e-01,3.064417494013845222e-01,1.183999999999999941e+00
4.007858980641513469e+00,3.333301128723534568e+00,6.400577915638344662e-01,5.251999999999999780e+00
8.717637780692736316e-01,7.250382809011609586e-01,1.795867658661850497e-01,1.148000000000000131e+00
8.890554976350439897e-01,7.394196522579264963e-01,2.247729965535697760e-01,1.177999999999999936e+00
8.794862107635164072e-01,7.314609603767974200e-01,2.640925377996974910e-01,1.173999999999999932e+00
8.748348463149036025e-01,7.275924613997739598e-01,3.048888351307694200e-01,1.177999999999999936e+00
3.984965650592153352e+00,3.314260947104779031e+00,6.364017112616802141e-01,5.222000000000000419e+00
8.732825302958749925e-01,7.263014137947169102e-01,1.798996347962655284e-01,1.150000000000000133e+00
8.830177692979639392e-01,7.343981266059201873e-01,2.232465245905574103e-01,1.169999999999999929e+00
8.824827566264245027e-01,7.339531612639415004e-01,2.649923420170729460e-01,1.177999999999999936e+00
8.644378277678673728e-01,7.189453523508801958e-01,3.012653684993341074e-01,1.163999999999999924e+00
3.865589176972902496e+00,3.169585377324555253e+00,4.373475171077486623e-01,5.017999999999999794e+00
3.971165143566835365e+00,3.256152269095263563e+00,6.305519827782330999e-01,5.174000000000000377e+00
8.737491478154931768e-01,7.164296037621050717e-01,1.789610280060241476e-01,1.144000000000000128e+00
8.850869563721887046e-01,7.257260267825018651e-01,2.224832886090512274e-01,1.165999999999999925e+00
8.845712976671322725e-01,7.253032130233539876e-01,2.640925377996974910e-01,1.173999999999999932e+00
8.769052873140622539e-01,7.190174766956936026e-01,3.038535589503593148e-01,1.173999999999999932e+00
3.860967109403784292e+00,3.165795518364023842e+00,4.368245826512627827e-01,5.012000000000000455e+00
3.941999261182695502e+00,3.232237737547984935e+00,6.259209477288374401e-01,5.136000000000000121e+00
8.768042147658970942e-01,7.189346023766579608e-01,1.795867658661850497e-01,1.148000000000000131e+00
8.805324780375118898e-01,7.219915875366227365e-01,2.213384346367919531e-01,1.159999999999999920e+00
8.755296830402109487e-01,7.178895515614458489e-01,2.613931251475711259e-01,1.161999999999999922e+00
8.843746679555789525e-01,7.251419867186552626e-01,3.064417494013845222e-01,1.183999999999999941e+00
3.884523733897483844e+00,3.140016453350269465e+00,4.369988941367580759e-01,5.014000000000000234e+00
3.949030329799560146e+00,3.192159724020651179e+00,6.234835608607345314e-01,5.116000000000000547e+00
8.710482353442490222e-01,7.041032512622671380e-01,1.773966833556218370e-01,1.134000000000000119e+00
8.886050569128070009e-01,7.182951348419033266e-01,2.221016706182981360e-01,1.163999999999999924e+00
8.759735453292781804e-01,7.080845770180823617e-01,2.600434188215079434e-01,1.155999999999999917e+00
8.834059569977005255e-01,7.140924936960693081e-01,3.043711970405643674e-01,1.175999999999999934e+00
3.872127966098847907e+00,3.129996456690196993e+00,4.356044022527955084e-01,4.998000000000000220e+00
3.933592369167036029e+00,3.179680600783666211e+00,6.210461739926315117e-01,5.096000000000000085e+00
8.695119950702733247e-01,7.028614465863195493e-01,1.770838144255413582e-01,1.132000000000000117e+00
8.901318697253718382e-01,7.195293189223875840e-01,2.224832886090512274e-01,1.165999999999999925e+00
8.790045956591372445e-01,7.105346966617435145e-01,2.609432230388833984e-01,1.159999999999999920e+00
8.728892194143945682e-01,7.055913925806398534e-01,3.007477304091290549e-01,1.161999999999999922e+00
3.878303152658310715e+00,3.090471329648294407e+00,4.338612873978423545e-01,4.977999999999999758e+00
3.919987868049966906e+00,3.123688283746934413e+00,6.154401841959947772e-01,5.049999999999999822e+00
8.759425365868894753e-01,6.980050782996862768e-01,1.773966833556218370e-01,1.134000000000000119e+00
8.843856569482670960e-01,7.047330777320468531e-01,2.198119626737796428e-01,1.152000000000000135e+00
8.885157246877564141e-01,7.080241706239597255e-01,2.622929293649465810e-01,1.165999999999999925e+00
8.777938648954555223e-01,6.994803309641067779e-01,3.007477304091290549e-01,1.161999999999999922e+00
3.859605025767229858e+00,3.075571508050954250e+00,4.317695495718985033e-01,4.953999999999999737e+00
3.918435397607174409e+00,3.122451179476143590e+00,6.151964455091845085e-01,5.048000000000000043e+00
8.790322809840214191e-01,7.004671773413078117e-01,1.780224212157827390e-01,1.138000000000000123e+00
8.767086981205912677e-01,6.986156030989562060e-01,2.179038727200141856e-01,1.142000000000000126e+00
8.839436026053150153e-01,7.043808215469924416e-01,2.609432230388833984e-01,1.159999999999999920e+00
8.762830320815219176e-01,6.982764061259585375e-01,3.002300923189240578e-01,1.159999999999999920e+00
3.888816372996279913e+00,3.054705368714047076e+00,4.326411069993751912e-01,4.964000000000000412e+00
3.955749244123305530e+00,3.107281829303683018e+00,6.176338323772874173e-01,5.068000000000000504e+00
8.714735726564794005e-01,6.845514793579854373e-01,1.755194697751390476e-01,1.122000000000000108e+00
8.877401342642025073e-01,6.973290312677827840e-01,2.194303446830265514e-01,1.150000000000000133e+00
8.796446357247327263e-01,6.909699336712352702e-01,2.582438103867570334e-01,1.148000000000000131e+00
8.872133306679580445e-01,6.969152216096872188e-01,3.023006446797442126e-01,1.167999999999999927e+00
3.956189098233523715e+00,3.107627339243742348e+00,4.401365008756737418e-01,5.049999999999999822e+00
4.008825595465133951e+00,3.148973850691341170e+00,6.259209477288374401e-01,5.136000000000000121e+00
8.637064285151559995e-01,6.784503075277003026e-01,1.739551251247367369e-01,1.112000000000000099e+00
8.923718219212329883e-01,7.009672696917884638e-01,2.205751986552857702e-01,1.155999999999999917e+00
8.765796718371900997e-01,6.885623729267361659e-01,2.573440061693815784e-01,1.144000000000000128e+00
8.841749288506021154e-01,6.945285256452705669e-01,3.012653684993341074e-01,1.163999999999999924e+00
3.999302314367191080e+00,3.097707332820395898e+00,4.425768616726081794e-01,5.078000000000000291e+00
4.030166946316418475e+00,3.121613901816306491e+00,6.259209477288374401e-01,5.136000000000000121e+00
8.683044489289908352e-01,6.725555727320671195e-01,1.739551251247367369e-01,1.112000000000000099e+00
8.924661003155894834e-01,6.912702681439241159e-01,2.194303446830265514e-01,1.150000000000000133e+00
8.781649436389225016e-01,6.801931365787564632e-01,2.564442019520061233e-01,1.140000000000000124e+00
8.797181841193003615e-01,6.813962175282548550e-01,2.981595399581039030e-01,1.152000000000000135e+00
3.999302314367191080e+00,3.097707332820395898e+00,4.425768616726081794e-01,5.078000000000000291e+00
4.025458807360441149e+00,3.117967156603904222e+00,6.251897316684065231e-01,5.129999999999999893e+00
8.761129421747552160e-01,6.786037343573555480e-01,1.755194697751390476e-01,1.122000000000000108e+00
8.831534105731658757e-01,6.840570131719874158e-01,2.171406367385080027e-01,1.138000000000000123e+00
8.812462241429187548e-01,6.825797791632434164e-01,2.573440061693815784e-01,1.144000000000000128e+00
8.766636070911083545e-01,6.790302584396150642e-01,2.971242637776938533e-01,1.148000000000000131e+00
4.027701814723586793e+00,3.073844849238624111e+00,4.432741076145894632e-01,5.086000000000000298e+00
4.038199030748266694e+00,3.081856071243901152e+00,6.237272995475448001e-01,5.118000000000000327e+00
8.793761415743187593e-01,6.711186546730647517e-01,1.752066008450585965e-01,1.120000000000000107e+00
8.927078006857364079e-01,6.812930552559561814e-01,2.182854907107672771e-01,1.144000000000000128e+00
8.845589184285852502e-01,6.750740249241600210e-01,2.568941040606938508e-01,1.142000000000000126e+00
8.845715881724081076e-01,6.750836941669646762e-01,2.981595399581039030e-01,1.152000000000000135e+00
4.002360395519663605e+00,3.054504889510815335e+00,4.404851238466643837e-01,5.054000000000000270e+00
4.016106499904000593e+00,3.064995584726739608e+00,6.203149579322005946e-01,5.089999999999999858e+00
8.793761415743187593e-01,6.711186546730647517e-01,1.752066008450585965e-01,1.120000000000000107e+00
8.958291566321902044e-01,6.836751988058021867e-01,2.190487266922734599e-01,1.148000000000000131e+00
8.768132186174766307e-01,6.691626937076611270e-01,2.546445935172552133e-01,1.132000000000000117e+00
8.876430172980065425e-01,6.774277347717109210e-01,2.991948161385139526e-01,1.155999999999999917e+00
4.026771631903192983e+00,3.028884255326770525e+00,4.408337468176549701e-01,5.057999999999999829e+00
4.035819755074189885e+00,3.035690133662597212e+00,6.200712192453903260e-01,5.088000000000000078e+00
8.635176094678197467e-01,6.495265017744044078e-01,1.711393047540125945e-01,1.094000000000000083e+00
8.943044199388808790e-01,6.726839325978288819e-01,2.175222547292610942e-01,1.140000000000000124e+00
8.752340265676585851e-01,6.583394354410128102e-01,2.528449850825043033e-01,1.124000000000000110e+00
8.908068260959894902e-01,6.700530888622842074e-01,2.986771780483089000e-01,1.153999999999999915e+00
4.002888051642794487e+00,3.010919342780348895e+00,4.382190745352252947e-01,5.028000000000000469e+00
4.023128497982761509e+00,3.026143938273721190e+00,6.181213097509079546e-01,5.072000000000000064e+00
8.635176094678197467e-01,6.495265017744044078e-01,1.711393047540125945e-01,1.094000000000000083e+00
8.974423301842805456e-01,6.750442270981721338e-01,2.182854907107672771e-01,1.144000000000000128e+00
8.814634502442967312e-01,6.630251253729773087e-01,2.546445935172552133e-01,1.132000000000000117e+00
8.830875295093693067e-01,6.642467362724898683e-01,2.960889875972837482e-01,1.144000000000000128e+00
